32001,32001,32001,32001,32001,32001,32001,32001,32001,32001,877,833,842,847,840,838,839,842,851,853,854,860,853,854,864,865,864,866,872,874,874,877,872,878,876,876,880,880,882,888,887,884,885,883,886,881,892,888,886,888,889,886,892,889,898,903,899,896,891,897,895,889,881,878,876,878,871,873,876,878,879,875,887,879,878,888,895,883,880,886,890,888,882,880,885,885,891,890,885,882,32001,672,655,634,623,614,620,613,616,620,626,617,618,623,613,615,622,619,607,621,622,625,635,628,637,661,681,32001,848,863,875,877,878,876,872,875,873,878,878,874,881,883,876,876,879,878,878,884,880,880,880,881,877,882,881,882,882,880,880,874,876,876,882,878,883,880,880,885,880,880,876,882,883,878,888,882,885,885,889,891,890,893,882,887,891,883,878,877,873,874,826,794,774,763,750,747,743,738,740,738,735,738,740,746,747,749,771,786,810,851,866,870,873,869,875,867,870,861,863,858,864,863,864,864,860,865,865,866,865,862,863,860,865,861,859,858,864,862,869,869,873,866,870,864,873,914,992,1013,1025,1031,1032,1030,1033,1035,1040,1039,1041,1035,1038,1037,1037,1037,1039,1032,1037,1039,1036,1039,1035,1039,1044,1043,1042,1041,1044,1040,1042,1038,1051,1044,1041,1039,1034,1028,1015,965,840,803,793,792,788,788,792,783,774,772,767,773,765,760,762,758,751,759,718,691,662,649,640,634,631,618,614,612,601,595,595,595,590,590,598,605,618,611,600,600,605,601,599,32001
32001,32001,32001,32001,32001,32001,32001,32001,32001,851,833,820,825,842,845,840,843,838,841,848,850,846,861,857,863,860,857,859,865,867,867,872,870,873,872,875,880,879,883,893,889,883,880,878,881,881,886,885,884,883,885,882,880,881,881,895,894,885,888,881,880,880,871,867,868,872,864,867,864,869,869,873,880,875,877,886,886,881,880,881,886,882,884,880,878,879,883,889,860,32001,664,635,627,618,613,607,615,608,612,616,626,620,618,620,609,611,615,616,608,621,619,623,628,623,626,648,654,700,728,827,859,871,873,871,865,870,867,874,872,873,878,877,874,876,879,872,870,880,878,877,878,875,872,877,875,873,870,873,875,866,870,870,878,872,878,873,875,876,873,876,873,877,878,871,882,875,878,879,883,885,884,889,876,878,879,876,871,873,867,867,826,784,771,765,755,748,746,741,741,735,738,743,741,748,751,750,773,791,815,852,862,867,870,869,872,864,865,857,858,853,859,859,859,859,855,861,856,860,862,858,856,859,859,855,854,851,856,855,866,866,867,864,863,859,859,880,32001,1000,1021,1031,1033,1033,1036,1037,1041,1038,1040,1034,1036,1038,1040,1041,1042,1037,1036,1040,1037,1041,1039,1040,1044,1042,1045,1046,1048,1042,1043,1036,1050,1044,1041,1044,1038,1025,1015,32001,814,794,791,791,787,788,789,782,773,771,766,772,767,761,765,760,758,750,706,681,660,648,637,629,627,617,612,608,602,599,597,595,592,594,602,609,614,608,604,605,605,602,602,32001
32001,32001,32001,32001,32001,32001,32001,32001,841,838,833,835,834,836,831,832,838,832,836,835,842,848,853,854,860,855,856,857,858,859,863,866,867,872,870,873,872,874,879,877,883,882,874,877,879,881,881,880,881,878,880,878,877,879,880,883,880,871,872,877,876,873,869,864,860,868,858,863,860,863,863,864,869,870,868,877,877,877,875,876,876,873,874,871,874,876,892,32001,714,671,633,618,618,614,615,607,609,606,610,612,624,618,621,620,612,613,614,617,611,624,620,621,621,618,623,634,641,688,693,32001,831,860,861,863,861,867,863,870,867,869,871,873,866,870,873,869,869,878,877,877,874,867,868,873,869,869,866,864,867,859,864,862,871,865,870,869,871,870,868,868,864,867,871,863,876,870,874,874,878,880,877,881,870,866,867,865,860,869,862,856,827,786,771,764,759,750,747,738,740,733,734,742,739,747,752,754,774,787,811,848,857,862,863,863,862,859,859,850,852,850,856,853,853,856,849,853,846,849,852,852,850,852,850,850,850,845,847,849,855,857,863,861,858,858,851,865,882,973,1013,1028,1037,1036,1036,1038,1041,1036,1038,1036,1037,1035,1043,1041,1042,1039,1041,1044,1041,1044,1042,1041,1043,1041,1044,1047,1053,1046,1042,1040,1048,1042,1038,1042,1039,1028,32001,840,805,792,790,788,788,790,786,777,772,769,767,770,774,767,765,760,762,732,692,676,655,644,637,629,623,617,611,612,606,597,596,599,596,598,607,613,617,610,607,606,604,602,602,32001
32001,32001,32001,32001,32001,32001,32001,848,828,833,831,834,835,835,829,827,834,832,835,836,840,841,846,852,851,854,854,855,851,855,858,858,857,864,866,870,873,869,875,870,878,872,874,872,881,877,872,873,879,866,874,868,867,869,869,876,872,866,866,868,869,865,863,858,852,857,853,859,858,862,860,861,868,868,868,876,872,875,875,874,873,869,877,870,869,890,32001,710,669,639,617,612,614,610,611,603,603,608,609,614,625,619,619,617,609,616,619,620,612,623,619,616,619,615,623,623,637,684,675,684,804,846,855,856,854,859,858,862,860,865,866,867,863,865,869,862,861,869,871,865,866,862,863,863,860,864,856,853,857,853,859,856,863,861,863,862,863,863,863,862,857,863,866,856,868,864,869,868,869,874,871,876,862,859,861,859,854,865,856,854,830,789,770,763,759,750,747,739,741,735,736,742,743,753,755,765,776,795,806,840,852,852,856,853,850,849,851,841,846,845,851,849,847,854,844,849,839,844,845,846,846,847,847,847,842,835,840,840,847,853,858,857,851,854,844,847,860,905,994,1023,1037,1037,1042,1044,1043,1041,1039,1042,1040,1039,1044,1047,1046,1046,1046,1049,1044,1047,1048,1048,1049,1048,1047,1050,1052,1046,1042,1043,1051,1050,1047,1043,1035,1020,32001,819,801,790,788,788,789,786,785,780,775,770,771,771,773,768,767,760,756,714,682,670,651,641,638,630,624,620,610,613,605,600,595,600,600,600,607,611,614,606,607,608,604,606,599,32001
32001,32001,32001,32001,32001,32001,829,824,818,818,822,830,833,825,823,824,834,836,838,832,835,836,842,849,851,848,853,843,845,854,858,850,847,845,852,859,867,864,873,870,876,871,872,866,871,868,868,868,868,860,875,866,865,872,868,871,857,852,854,857,852,850,852,846,844,850,846,850,854,853,852,851,856,857,862,872,868,865,867,868,869,865,869,865,875,879,32001,673,644,623,613,609,612,608,608,601,602,606,606,614,624,620,615,616,610,616,621,620,613,625,617,613,617,611,612,612,632,670,666,661,32001,826,841,849,850,854,851,859,855,858,854,859,857,856,863,862,858,867,869,860,858,857,856,854,852,859,850,846,854,846,851,849,853,852,851,853,854,853,859,859,849,856,855,848,862,859,863,864,862,868,864,869,859,849,854,851,849,857,849,851,830,791,779,763,760,752,752,741,743,737,741,748,751,755,756,762,777,792,809,836,846,841,844,844,840,840,842,837,843,841,845,840,836,843,836,838,832,840,841,843,841,843,842,838,836,827,831,831,837,842,849,851,845,847,840,840,845,865,32001,1009,1032,1037,1040,1041,1046,1046,1041,1047,1045,1045,1050,1050,1051,1047,1049,1051,1048,1050,1051,1048,1051,1049,1048,1051,1056,1050,1049,1047,1051,1048,1048,1040,1038,994,853,810,794,787,787,788,787,782,781,778,774,773,771,770,770,770,766,768,737,704,678,665,649,641,637,628,623,622,614,611,605,603,596,598,599,600,609,615,613,610,607,611,608,609,603,32001
32001,32001,32001,32001,32001,785,797,804,808,812,816,821,820,822,821,819,833,834,833,833,836,839,841,846,844,836,835,835,832,840,846,850,844,846,848,852,862,858,869,867,867,870,863,861,865,864,862,855,858,852,857,856,862,862,862,860,853,849,853,859,847,848,849,840,840,845,842,843,848,847,846,847,855,852,859,866,856,862,861,857,861,855,861,859,890,32001,698,651,632,619,608,605,609,603,604,599,599,607,608,615,624,617,613,616,611,615,618,618,609,622,611,611,613,602,600,599,623,652,651,638,32001,804,830,842,841,846,845,852,849,850,850,851,850,847,857,858,855,862,862,856,857,851,851,848,849,850,847,843,847,842,844,842,846,845,842,845,844,849,856,851,847,850,848,841,853,850,854,855,855,862,857,863,855,841,846,847,846,851,839,839,823,787,774,761,761,753,752,742,745,743,746,749,750,756,758,769,776,793,810,827,836,830,830,835,829,830,833,831,835,836,839,833,831,835,832,832,829,837,835,840,838,841,840,834,835,824,827,824,828,831,839,840,831,836,835,836,834,837,878,988,1027,1037,1041,1042,1049,1047,1044,1048,1047,1046,1053,1048,1054,1049,1053,1056,1047,1050,1050,1050,1048,1049,1053,1056,1061,1056,1054,1052,1053,1050,1044,1035,1036,32001,835,803,793,789,790,793,791,785,784,780,776,774,770,770,769,770,765,764,727,696,674,664,648,638,632,629,627,625,615,613,607,601,594,601,604,605,616,612,615,613,611,610,611,614,606,32001
32001,32001,32001,32001,811,808,804,805,802,803,804,808,818,821,825,818,822,821,825,822,822,826,836,838,840,839,838,837,839,843,840,843,840,844,843,842,850,850,856,859,856,863,867,856,860,860,862,859,856,848,860,853,852,858,851,850,845,839,834,848,837,839,839,839,838,837,838,838,840,843,842,842,851,849,852,856,849,861,861,852,855,853,855,856,884,32001,666,635,625,616,607,603,605,602,601,598,598,605,609,612,619,614,609,615,609,610,614,610,609,617,607,604,601,587,583,592,613,633,634,623,32001,784,820,836,838,840,841,843,842,843,841,846,847,844,851,851,847,855,856,851,853,842,843,843,846,848,844,840,844,839,839,839,841,844,840,839,835,836,844,842,838,842,839,836,849,845,848,849,850,855,849,853,848,836,836,840,841,841,826,827,820,796,776,764,758,752,748,743,744,743,747,751,752,757,760,765,772,793,805,818,823,821,821,825,823,825,829,830,833,831,834,824,824,831,831,828,825,833,830,833,828,830,828,822,827,820,823,821,821,823,830,834,825,828,824,829,825,826,841,32001,1015,1034,1040,1044,1051,1052,1047,1051,1049,1048,1055,1050,1051,1050,1053,1058,1054,1054,1057,1053,1050,1051,1057,1061,1064,1055,1059,1056,1056,1055,1055,1041,1032,32001,825,802,793,789,791,795,788,783,783,779,776,774,769,769,767,769,767,753,715,690,672,662,651,639,636,629,628,624,614,613,606,601,595,607,606,611,615,610,614,610,611,609,611,615,605,32001
32001,32001,32001,797,799,803,798,796,804,805,808,809,815,812,814,806,813,818,817,819,820,825,835,834,826,832,836,833,831,831,832,842,830,832,837,837,845,843,850,846,843,849,849,843,844,840,847,843,840,842,853,852,844,847,843,842,838,834,830,847,835,835,836,833,833,833,835,834,837,838,839,840,846,845,848,847,845,849,843,841,846,846,844,857,878,32001,656,631,620,614,606,600,599,603,601,601,598,606,608,612,613,608,605,613,610,607,607,607,606,607,592,586,581,573,579,585,604,616,616,614,32001,769,810,828,833,836,835,835,834,833,835,845,847,842,842,844,839,846,848,844,845,839,838,838,839,840,840,834,838,837,833,832,839,840,832,833,828,827,835,835,836,834,832,828,839,835,839,839,836,845,846,844,831,826,828,831,831,828,817,816,807,788,777,766,753,748,747,745,745,744,749,747,751,754,755,762,775,790,798,808,813,811,814,816,816,819,824,823,825,825,824,820,823,825,825,822,823,828,825,828,824,824,821,819,823,818,821,814,816,816,825,828,820,822,815,818,819,819,826,864,989,1031,1039,1045,1053,1054,1050,1056,1055,1056,1059,1054,1057,1054,1057,1058,1055,1061,1057,1057,1052,1055,1059,1059,1068,1059,1058,1062,1057,1052,1056,1038,1003,861,817,799,792,787,792,793,786,784,786,780,777,774,771,768,770,768,774,739,707,684,667,656,649,638,632,627,624,620,612,611,606,601,597,606,611,613,617,615,617,614,614,608,610,613,609,32001
32001,32001,790,787,796,792,790,787,797,796,799,805,809,809,813,811,812,816,819,813,814,815,819,819,816,824,827,834,833,829,827,833,825,832,830,832,835,831,837,842,839,845,846,841,841,840,844,838,840,846,847,841,837,843,834,837,832,829,824,836,829,833,831,831,828,829,835,834,838,839,839,837,845,843,850,849,842,845,835,838,841,840,846,879,32001,678,642,620,606,602,601,594,590,599,598,599,596,604,606,609,608,607,603,609,605,602,592,591,585,579,566,560,567,568,577,580,595,602,600,612,32001,759,803,821,826,831,831,829,828,828,829,838,844,838,835,839,831,841,839,836,837,834,835,831,836,834,836,828,832,834,828,825,832,834,826,831,822,819,826,829,822,828,824,822,829,826,828,827,828,835,840,838,827,820,818,822,820,819,810,808,799,782,772,763,758,755,752,748,747,747,751,750,754,756,763,765,770,780,791,800,802,801,803,805,803,809,810,812,815,818,820,814,819,820,819,816,820,824,819,818,817,818,813,815,820,813,813,807,809,807,819,819,816,818,811,817,814,816,814,840,32001,1005,1036,1047,1057,1056,1052,1059,1057,1057,1060,1059,1058,1059,1060,1061,1058,1062,1058,1059,1060,1060,1059,1062,1070,1059,1062,1063,1061,1059,1058,1045,32001,857,816,801,794,787,790,793,785,785,785,784,782,780,773,773,766,770,778,732,707,687,667,656,645,638,633,630,625,621,611,612,606,602,595,607,615,618,614,614,616,611,616,608,611,612,608,32001
32001,787,780,778,783,785,786,787,793,791,795,798,805,806,802,801,810,810,816,807,809,813,816,818,815,819,821,824,825,830,824,829,824,823,829,823,830,830,840,832,830,841,837,831,834,829,840,836,837,833,832,829,828,829,826,825,824,815,813,824,820,827,828,827,829,829,831,831,831,831,827,836,837,837,841,840,838,840,831,830,831,831,835,869,701,661,629,604,589,582,585,577,574,581,586,593,592,597,602,596,595,583,577,581,580,572,564,558,551,551,550,552,560,566,574,577,587,589,588,622,671,764,799,819,820,824,823,823,820,825,828,833,840,833,829,832,822,830,832,828,828,826,827,826,830,828,830,823,829,827,824,819,819,826,819,822,817,816,818,823,815,820,814,812,824,818,818,815,821,826,828,827,813,806,813,813,808,810,805,798,794,781,768,756,753,749,749,745,746,748,749,745,748,747,752,753,763,775,780,789,791,793,793,798,801,802,802,803,812,815,815,811,813,816,817,812,813,817,814,816,811,813,807,810,815,805,809,799,797,799,805,814,809,811,806,809,804,809,806,823,847,32001,1027,1048,1059,1058,1059,1059,1059,1062,1062,1064,1066,1061,1063,1064,1066,1068,1064,1068,1061,1060,1065,1062,1065,1058,1062,1066,1060,1057,1055,1053,32001,851,818,803,796,791,793,793,788,790,786,782,782,782,773,771,766,770,765,717,693,678,659,651,644,639,632,632,628,621,610,610,605,603,597,608,616,615,611,614,614,612,613,604,609,615,612,32001
32001,776,773,772,776,785,786,787,791,788,799,800,805,802,801,804,811,812,815,809,808,809,815,813,810,817,811,813,822,821,821,828,813,812,815,819,826,824,832,825,824,834,832,824,830,829,833,834,829,833,826,830,826,825,823,818,818,812,809,815,814,819,823,824,825,827,830,826,825,827,829,834,830,836,834,830,837,838,827,827,828,827,849,864,691,652,628,602,575,561,563,559,560,564,565,566,564,567,563,566,565,567,555,548,543,540,541,541,540,544,553,553,558,564,571,574,581,575,595,623,672,762,795,812,815,819,819,820,816,821,824,825,832,828,828,829,821,826,825,827,825,820,824,822,825,825,829,817,820,823,816,816,807,816,813,815,809,807,806,814,808,809,807,808,816,810,810,810,813,814,817,814,803,797,804,803,799,801,793,792,788,782,766,759,754,748,742,742,741,741,740,741,743,743,751,756,761,770,772,778,782,782,784,790,797,794,797,793,798,805,809,805,805,809,810,807,805,810,810,809,806,809,804,808,808,799,801,793,794,796,800,804,799,800,796,799,793,800,800,812,824,32001,1003,1043,1058,1058,1060,1059,1059,1063,1066,1065,1064,1059,1064,1064,1064,1067,1068,1072,1069,1066,1066,1063,1065,1062,1071,1073,1066,1063,1056,1051,32001,850,819,807,799,796,796,795,792,795,792,788,787,783,775,772,768,776,738,706,685,671,654,649,645,640,633,634,625,620,616,613,608,603,600,613,617,623,618,615,616,610,617,605,609,617,612,32001
32001,763,767,772,777,784,784,781,782,786,798,800,805,800,796,798,806,804,807,801,804,802,806,802,807,812,810,815,813,814,819,824,822,817,821,820,815,814,826,825,824,822,820,813,815,819,821,823,822,823,819,821,817,817,813,814,813,807,806,805,806,812,817,818,816,820,824,822,824,824,822,832,822,825,826,825,832,829,822,822,827,820,847,847,672,630,617,604,577,560,553,545,543,544,547,553,551,550,548,543,536,535,529,528,532,533,535,541,541,546,550,552,560,563,568,570,569,577,598,621,723,772,793,808,810,814,815,814,806,818,822,823,829,823,823,822,817,819,822,819,817,815,819,816,815,819,826,816,820,820,808,811,803,813,811,809,806,804,805,811,805,805,801,804,807,806,807,803,802,809,810,805,797,791,796,797,795,794,788,786,784,776,769,760,756,754,751,748,747,747,747,746,749,751,752,758,759,768,767,775,778,779,782,786,794,788,791,789,789,794,801,798,800,798,801,803,799,805,802,801,802,803,803,801,801,792,795,788,789,790,793,798,793,792,790,791,787,795,798,805,803,824,32001,1031,1055,1057,1061,1058,1059,1062,1070,1066,1067,1066,1068,1070,1069,1069,1073,1077,1074,1071,1073,1072,1073,1065,1073,1068,1068,1071,1061,1060,32001,854,822,806,797,796,796,795,793,796,795,790,790,786,779,778,774,775,727,700,681,669,650,652,644,639,631,633,625,619,614,614,608,604,605,621,624,623,614,617,617,613,613,607,610,617,613,32001
32001,761,764,766,769,774,782,785,776,783,789,790,792,793,792,790,800,804,805,803,803,802,800,797,801,806,812,810,813,812,816,812,810,807,809,817,812,816,827,818,816,817,820,818,823,814,815,820,819,814,810,812,812,814,812,809,809,805,806,802,805,809,813,816,812,814,816,816,820,820,819,824,818,823,824,821,830,827,817,818,819,811,838,843,32001,615,603,595,576,557,551,539,538,537,536,538,536,536,533,534,526,530,527,527,533,535,536,542,539,544,550,550,560,560,564,555,566,584,599,632,738,775,794,805,804,807,807,805,798,808,814,815,817,818,818,812,811,811,814,809,807,805,810,807,809,812,819,806,812,815,803,807,794,802,803,805,798,799,800,803,800,794,797,796,800,802,802,798,798,800,796,795,794,785,789,790,787,790,784,781,779,773,766,761,753,754,750,749,748,751,745,747,749,750,751,754,755,762,760,771,775,775,783,784,792,784,785,781,782,784,789,790,791,791,793,798,791,796,793,790,795,797,801,797,794,789,788,780,781,787,789,791,786,785,780,784,779,788,794,796,791,806,32001,1005,1047,1054,1063,1061,1062,1068,1073,1069,1071,1066,1072,1072,1073,1068,1069,1075,1076,1072,1070,1074,1069,1070,1077,1076,1075,1073,1065,1060,32001,865,827,810,803,802,798,800,799,800,795,793,794,784,780,777,777,769,716,691,677,665,653,646,641,636,627,627,624,619,615,618,611,603,606,617,618,615,615,615,614,616,615,611,612,613,612,32001
32001,761,763,761,766,770,781,785,782,781,779,780,788,787,786,785,797,793,800,804,804,802,802,795,801,799,806,801,803,807,811,810,808,800,801,812,811,809,813,806,809,808,813,810,811,809,814,816,813,810,806,805,802,802,805,806,805,802,805,799,801,804,808,809,805,811,806,809,813,816,816,814,810,817,820,815,823,821,813,816,817,809,838,832,32001,608,592,588,574,562,555,543,541,536,535,532,532,535,529,532,532,534,529,527,533,537,539,544,539,543,549,546,554,550,554,557,569,580,599,32001,744,772,793,800,797,799,799,802,796,802,808,811,812,810,810,800,799,804,803,796,794,794,803,801,802,800,811,799,804,809,796,803,792,800,798,800,795,797,793,794,788,787,788,784,789,793,792,788,789,788,786,785,785,777,781,784,781,785,777,774,776,772,766,763,757,754,751,749,747,750,746,743,748,745,749,753,751,758,756,767,770,767,774,775,783,778,776,777,773,774,785,783,780,781,781,788,784,788,785,784,785,789,797,793,790,787,784,778,777,781,780,783,781,779,779,780,776,784,793,795,788,792,821,32001,1030,1050,1060,1064,1064,1070,1074,1072,1075,1073,1074,1073,1074,1073,1076,1078,1082,1077,1075,1077,1078,1076,1081,1079,1079,1073,1068,1070,1038,1004,32001,32001,829,815,809,806,803,805,802,797,798,791,787,781,785,759,709,687,670,663,653,647,639,638,628,627,621,617,618,617,613,607,611,620,617,617,613,613,616,618,614,613,613,616,611,32001
32001,759,759,759,761,767,777,780,773,770,772,774,779,786,784,785,792,785,791,798,794,794,798,798,802,799,802,800,806,800,807,805,801,795,802,810,803,805,806,801,805,805,810,807,804,803,805,805,807,800,797,796,795,791,796,802,802,799,803,799,795,792,801,804,805,810,804,810,811,812,814,806,806,808,810,808,818,812,807,813,813,805,830,840,32001,611,581,579,567,562,554,546,541,540,539,534,531,533,530,533,533,536,531,528,532,537,539,544,540,543,546,542,544,548,557,559,568,584,607,653,739,771,786,793,787,791,795,800,791,795,803,803,805,806,806,792,797,800,799,794,793,794,795,796,796,796,805,792,799,797,790,794,786,788,788,791,789,791,787,786,784,782,781,782,784,787,788,784,780,784,781,778,778,774,772,777,775,778,771,769,771,769,762,762,753,749,746,747,747,750,747,748,748,747,748,749,745,752,752,758,761,761,767,768,777,771,769,768,766,764,771,771,773,772,769,779,776,779,781,778,780,786,791,785,784,782,781,770,773,773,770,779,776,775,776,777,770,779,784,790,782,786,798,32001,1004,1042,1058,1064,1066,1069,1075,1073,1075,1075,1079,1078,1079,1076,1079,1082,1083,1081,1082,1084,1082,1075,1079,1078,1080,1077,1073,1076,1060,1049,1044,1026,32001,32001,32001,32001,32001,845,829,813,804,799,792,783,787,741,699,680,668,664,650,646,640,639,628,626,621,616,618,615,614,608,613,619,614,618,612,613,615,621,616,617,615,615,611,32001
32001,757,756,756,759,761,770,773,771,768,766,776,778,779,778,775,787,784,783,793,792,789,793,795,796,796,798,792,798,800,803,800,798,793,800,806,798,800,802,796,797,799,800,797,793,797,800,801,798,790,792,790,787,784,785,794,798,799,801,799,792,790,797,799,793,803,796,805,806,808,807,803,800,800,808,808,815,811,806,808,809,798,809,820,32001,625,575,565,558,560,551,547,544,542,540,534,530,530,528,530,533,531,528,525,530,535,536,538,535,535,537,536,543,551,557,561,580,604,617,662,739,766,785,792,786,790,794,796,789,794,798,794,795,798,791,783,792,793,792,788,788,787,790,791,789,788,797,782,788,786,781,787,779,780,784,784,784,788,784,781,776,778,778,780,777,778,779,776,773,780,779,776,775,772,767,774,770,771,765,764,767,769,757,758,749,745,746,746,746,749,743,745,746,745,749,747,741,747,750,754,757,755,762,762,768,761,758,758,761,757,762,765,765,765,762,768,771,775,774,769,773,774,778,773,777,776,776,766,768,769,767,774,770,770,766,767,764,769,775,782,775,780,779,810,32001,1027,1056,1067,1070,1076,1081,1080,1079,1079,1081,1082,1087,1082,1081,1083,1082,1080,1081,1084,1085,1080,1081,1078,1082,1086,1078,1079,1072,1072,1067,1058,1057,1038,1037,1024,1030,1016,32001,32001,32001,32001,805,786,760,722,689,671,663,657,649,649,642,639,628,628,620,613,617,615,614,612,616,618,613,616,615,615,612,614,612,613,612,614,613,32001
32001,753,760,750,750,758,764,770,770,769,773,775,775,776,777,774,783,784,786,792,787,789,792,796,789,788,789,793,793,796,801,795,790,790,795,800,800,793,802,794,791,798,798,791,787,786,786,795,798,793,789,788,786,784,786,791,794,795,799,793,788,785,793,797,792,801,793,799,796,800,802,799,794,794,804,803,805,806,799,805,805,794,792,818,777,32001,595,567,549,547,541,541,538,535,535,531,530,530,529,529,534,532,530,525,529,530,526,527,527,531,539,539,546,551,558,575,588,608,622,667,736,762,780,785,783,783,784,789,783,789,791,791,786,789,784,777,788,787,784,787,785,786,789,788,783,780,786,774,780,778,774,774,772,771,774,777,778,779,775,773,768,773,775,775,773,778,778,770,769,773,773,773,770,772,762,770,768,766,761,755,762,764,757,754,746,744,744,744,743,746,741,744,745,748,746,746,743,746,752,754,750,751,758,758,760,754,756,757,761,756,759,762,760,760,756,762,762,766,767,758,765,769,771,769,770,769,770,761,764,762,762,769,762,766,762,761,762,763,765,779,772,775,770,792,821,32001,1044,1064,1071,1078,1086,1082,1082,1079,1084,1084,1089,1087,1082,1084,1091,1087,1084,1087,1087,1087,1087,1081,1083,1088,1083,1084,1082,1084,1079,1074,1077,1074,1072,1067,1067,1064,1054,1033,1010,32001,32001,32001,742,711,682,664,660,657,649,644,637,634,627,627,620,619,619,615,615,614,617,619,614,616,617,615,613,616,617,614,616,616,620,32001
32001,752,749,746,748,756,755,763,765,761,764,769,773,769,772,774,782,782,782,791,784,781,784,785,780,778,780,782,786,789,788,788,782,784,780,790,795,789,788,787,791,790,791,784,781,782,778,784,782,784,776,776,779,779,779,786,787,786,792,788,787,783,789,795,788,796,791,793,790,792,797,794,789,786,794,795,798,797,791,800,798,790,785,796,807,32001,617,580,559,546,535,531,528,528,529,527,527,526,527,526,526,523,522,517,518,524,523,527,530,534,541,541,550,561,574,582,594,608,628,666,732,755,773,783,787,782,779,782,773,773,781,785,779,786,780,774,782,779,783,780,776,779,779,783,781,776,782,771,777,770,770,770,770,768,770,774,768,769,769,768,760,769,769,775,773,773,774,762,768,766,766,769,768,771,762,767,760,760,754,751,757,758,752,747,742,739,742,741,741,740,738,739,739,745,739,740,738,742,743,747,744,750,752,755,755,753,750,753,757,749,756,760,760,758,757,760,757,762,761,753,755,759,762,759,760,758,759,752,754,756,758,760,753,764,762,756,753,758,761,771,766,768,761,773,786,32001,1025,1061,1073,1077,1083,1085,1087,1086,1086,1086,1091,1089,1083,1088,1092,1091,1090,1095,1091,1092,1089,1086,1093,1096,1096,1087,1088,1086,1084,1084,1087,1088,1086,1083,1079,1082,1069,1057,1048,1050,32001,32001,737,702,678,662,656,655,646,642,636,633,627,625,621,619,623,620,620,618,616,616,614,615,616,616,613,616,620,619,618,617,614,32001
32001,752,755,749,753,752,751,758,759,760,764,770,770,764,765,773,777,775,773,778,772,774,778,778,773,774,776,780,779,782,786,784,783,782,787,791,791,790,785,782,788,784,784,778,781,773,778,776,772,774,764,771,775,779,775,780,779,775,781,784,786,780,784,787,786,792,784,792,785,785,794,794,787,782,788,790,794,792,792,796,793,787,778,783,784,764,718,606,571,553,541,535,529,526,524,522,521,521,521,522,523,520,520,521,522,529,527,530,534,535,545,550,564,571,576,580,595,607,621,668,728,755,771,775,782,772,773,778,769,768,776,778,769,772,770,769,775,772,775,776,770,776,775,775,775,767,777,768,769,765,767,765,765,765,761,766,762,762,758,761,756,761,764,768,768,762,763,758,761,754,755,762,758,763,754,755,753,750,749,749,752,754,750,742,740,738,740,735,734,738,732,731,735,740,736,737,736,740,741,745,741,745,747,750,746,749,743,743,753,746,750,751,752,747,749,751,750,754,755,749,749,751,755,753,754,751,752,748,748,751,753,753,747,758,756,749,746,750,754,759,762,761,755,760,767,798,32001,1042,1065,1076,1083,1085,1091,1091,1090,1086,1088,1084,1081,1089,1092,1090,1092,1096,1096,1091,1092,1088,1094,1098,1095,1089,1089,1090,1090,1090,1092,1087,1090,1089,1091,1081,1081,1074,1056,1064,32001,32001,722,690,670,656,653,653,647,643,639,633,627,626,623,620,623,621,619,620,619,618,614,615,614,617,612,617,624,620,619,618,618,32001
32001,749,752,751,749,751,753,760,755,758,761,766,764,759,759,766,776,780,770,773,769,776,778,771,772,774,778,784,783,777,778,778,775,779,783,785,782,780,782,781,777,775,778,773,771,783,777,773,768,768,758,765,773,774,773,776,776,775,781,777,781,780,777,781,780,789,781,786,776,780,788,786,781,779,783,785,788,791,786,790,788,783,778,785,787,761,768,752,32001,567,547,537,533,532,532,528,526,526,525,527,529,528,525,524,522,530,528,535,542,545,554,558,564,568,575,573,593,607,623,662,726,749,765,769,772,762,763,769,766,766,766,774,763,767,766,766,772,764,767,770,767,774,768,767,769,765,772,765,764,759,763,761,760,756,756,761,756,757,752,754,746,757,753,761,764,755,759,754,757,752,753,760,755,758,756,749,750,746,748,745,747,747,747,740,737,735,734,735,729,735,729,727,731,735,731,735,729,736,737,739,737,739,741,743,740,745,741,744,751,741,746,744,746,744,748,745,744,742,747,744,742,747,745,746,747,747,748,744,742,745,747,752,742,752,751,742,739,744,744,748,755,755,750,751,756,764,32001,1013,1059,1075,1085,1091,1096,1095,1090,1090,1092,1093,1085,1092,1095,1097,1096,1097,1097,1094,1095,1090,1093,1096,1097,1093,1093,1092,1096,1098,1092,1090,1092,1099,1090,1087,1084,1076,1069,1029,32001,759,716,691,671,658,653,654,647,643,641,636,629,626,628,624,622,622,621,622,620,618,614,618,613,617,612,616,622,619,620,615,617,32001
32001,743,742,747,744,748,749,758,755,757,762,760,762,760,766,766,769,772,768,765,764,767,770,770,767,769,770,773,773,773,770,771,767,767,773,774,777,776,772,777,776,767,777,770,766,774,768,758,758,763,759,766,771,773,767,768,770,768,773,770,778,779,776,779,777,781,775,781,775,778,783,785,780,775,781,787,783,786,783,784,783,776,772,784,781,762,773,793,32001,617,578,553,544,536,534,529,528,526,530,529,528,527,530,530,532,541,541,541,547,551,557,562,561,569,578,575,596,611,637,660,725,746,763,762,767,759,761,766,768,764,764,768,759,763,767,768,769,762,766,762,760,770,764,765,759,758,765,761,759,756,758,757,754,754,749,760,753,753,750,752,740,752,744,753,756,748,749,743,749,744,751,755,749,751,751,744,744,738,743,742,739,738,743,738,734,732,731,729,725,728,725,723,724,732,725,733,730,734,733,731,728,731,735,738,734,738,736,738,747,737,739,738,737,738,738,736,729,729,734,735,733,740,741,742,741,741,739,741,737,745,740,740,735,746,744,737,737,742,741,738,743,746,740,745,747,750,788,32001,1046,1072,1084,1089,1098,1097,1096,1093,1093,1094,1088,1095,1095,1100,1099,1099,1096,1096,1098,1094,1097,1102,1101,1099,1096,1099,1102,1103,1100,1093,1094,1095,1088,1084,1090,1085,1067,32001,32001,734,701,683,666,659,652,650,645,645,640,636,629,625,627,624,625,623,619,625,619,617,616,616,615,619,613,614,621,618,618,616,617,32001
32001,743,742,743,739,739,739,745,744,747,760,758,757,754,757,756,762,764,760,761,758,760,768,764,761,769,767,770,770,768,767,765,769,769,770,766,769,770,772,772,768,763,772,766,772,773,762,752,755,755,751,756,762,767,761,766,761,761,767,761,769,772,770,772,776,783,774,777,769,777,782,777,774,770,773,781,776,781,780,778,774,766,761,771,774,761,767,785,744,639,601,573,563,554,549,544,542,538,539,538,540,539,543,541,540,546,542,542,548,549,553,563,559,572,577,582,599,607,638,655,718,739,756,759,763,755,753,765,757,758,753,763,747,753,758,761,760,760,758,755,749,760,753,754,751,755,758,752,746,749,751,751,751,749,745,749,743,743,741,748,738,754,743,747,753,739,738,736,743,741,743,746,745,744,745,738,736,735,740,738,736,736,741,734,731,732,729,728,721,728,724,721,720,729,722,730,725,726,725,722,721,725,731,732,729,736,731,735,743,736,736,736,734,738,740,733,725,721,727,731,730,736,740,738,743,738,738,737,733,736,734,735,729,734,732,729,734,737,736,731,738,739,737,741,742,738,760,32001,1019,1063,1084,1091,1097,1097,1096,1092,1094,1098,1093,1099,1097,1104,1104,1107,1104,1100,1103,1101,1105,1107,1102,1100,1096,1100,1103,1104,1104,1101,1098,1100,1094,1090,1090,1075,1038,32001,774,727,696,680,667,661,653,648,642,641,639,636,634,624,629,626,623,622,619,624,623,617,618,619,618,620,614,611,622,621,621,614,615,32001
32001,743,746,746,747,742,741,746,742,742,747,750,752,751,752,754,758,759,755,762,755,756,758,756,753,764,763,765,761,761,761,757,763,763,763,763,760,762,758,766,763,758,760,757,756,755,751,744,744,754,749,755,760,760,755,761,758,756,761,756,764,769,765,763,770,776,772,771,763,767,773,768,769,765,765,777,771,777,780,772,768,763,758,765,765,757,757,767,778,664,621,587,574,561,556,549,550,544,545,543,543,543,546,544,543,548,543,545,547,549,552,569,563,575,579,590,597,609,633,649,715,734,748,748,750,748,745,756,749,751,748,755,744,749,753,754,753,755,757,748,746,759,752,750,748,753,752,746,739,739,744,742,746,750,744,745,742,739,737,744,738,750,737,745,750,736,733,731,735,733,734,738,738,731,738,731,735,735,738,737,732,732,736,729,729,727,722,723,717,721,718,713,716,725,717,725,719,721,722,717,716,723,729,727,725,730,727,729,737,735,731,725,727,733,733,725,719,717,720,727,728,732,735,730,732,731,731,731,728,731,726,729,726,727,727,727,731,733,732,727,733,735,737,735,740,734,750,792,32001,1053,1085,1093,1098,1098,1098,1096,1097,1099,1095,1098,1098,1107,1102,1110,1107,1106,1116,1105,1108,1109,1102,1105,1101,1105,1108,1108,1109,1104,1098,1104,1095,1091,1090,1089,32001,32001,759,717,691,678,664,657,653,647,645,646,638,637,634,625,627,623,622,622,623,625,625,618,619,620,621,622,615,609,618,621,619,616,615,32001
32001,738,740,743,740,738,737,742,736,738,740,745,746,749,748,748,751,754,754,752,752,752,754,747,748,750,758,760,759,764,760,757,760,752,758,758,760,757,759,762,755,750,757,753,749,751,748,738,739,747,741,749,751,755,752,754,753,750,757,755,762,763,759,756,762,765,765,763,760,760,767,764,763,763,760,768,766,769,772,764,764,760,755,761,761,758,752,755,785,32001,636,596,578,568,562,559,555,548,548,547,543,543,545,548,545,548,542,549,546,553,554,569,566,577,580,587,599,607,634,649,710,730,741,740,746,746,740,750,742,746,740,742,733,741,748,745,745,753,755,744,744,756,748,739,745,750,745,738,736,735,736,734,738,741,737,735,735,734,733,728,728,740,732,735,739,731,727,723,729,728,727,734,735,722,729,726,730,729,733,732,729,726,731,722,723,722,715,717,712,716,717,713,715,718,710,717,714,717,716,711,709,721,724,723,720,721,722,725,732,728,726,719,720,725,726,719,716,713,715,724,722,728,730,728,729,725,726,730,727,728,721,720,721,721,721,721,724,728,728,724,725,725,736,727,732,728,744,769,32001,1024,1072,1090,1096,1097,1097,1097,1099,1103,1102,1102,1104,1108,1110,1112,1111,1109,1112,1104,1112,1117,1111,1113,1109,1112,1111,1109,1112,1105,1099,1103,1100,1093,1093,1097,32001,32001,748,711,691,677,663,660,651,648,644,646,640,637,635,627,628,628,622,625,624,627,623,619,621,620,619,622,614,611,619,622,620,617,620,32001
32001,739,736,735,736,733,730,735,735,737,743,743,744,742,745,743,749,752,747,749,752,747,750,748,748,752,765,759,757,757,758,755,756,751,753,756,755,750,751,757,751,743,746,739,740,740,743,733,732,744,740,741,745,752,748,750,750,749,750,749,761,758,751,753,759,762,762,763,761,760,762,762,761,764,757,765,762,766,766,759,761,754,754,759,758,752,750,750,758,760,652,609,587,572,560,562,556,554,552,550,545,543,545,550,546,545,541,550,549,557,555,568,571,576,579,589,602,609,636,648,708,721,734,732,738,737,731,745,737,740,738,738,727,735,743,740,738,745,749,738,736,747,742,732,735,741,737,731,731,732,736,728,732,731,728,728,731,730,730,722,727,736,729,731,728,720,721,718,724,724,726,732,730,721,727,722,727,725,727,729,721,720,720,717,719,718,709,713,710,712,712,713,713,714,708,715,711,715,713,710,708,716,719,718,717,715,717,721,728,724,725,716,716,724,720,715,716,713,716,719,719,721,723,719,724,718,722,724,728,722,713,715,719,716,714,717,722,727,726,722,722,722,730,723,728,721,734,747,786,32001,1052,1087,1096,1099,1100,1101,1101,1105,1104,1104,1107,1111,1114,1115,1108,1109,1109,1107,1117,1119,1113,1114,1115,1118,1112,1113,1110,1109,1103,1103,1103,1101,1095,1113,32001,32001,741,696,680,669,662,657,653,645,644,648,644,641,644,632,630,628,622,625,626,628,621,619,619,618,619,623,619,613,619,622,619,621,619,32001
32001,738,733,733,734,737,733,737,736,738,735,735,738,737,738,738,743,748,745,745,744,746,752,748,747,753,757,756,749,752,750,749,749,746,744,744,746,744,747,746,741,740,744,741,737,736,736,730,727,738,736,737,743,745,744,745,749,748,750,747,752,755,748,749,756,757,759,759,754,755,753,760,758,757,754,757,754,756,760,751,750,744,749,754,754,751,746,749,747,770,682,634,589,580,568,564,564,558,553,553,547,546,546,550,548,547,545,554,553,561,560,568,569,579,579,588,601,606,636,642,703,716,729,727,733,736,728,738,732,738,733,734,723,729,732,733,733,742,741,729,727,739,734,726,729,735,732,729,730,732,732,724,727,727,723,725,726,724,729,719,723,728,724,726,726,723,717,714,719,715,721,730,727,716,727,725,728,719,720,721,717,711,715,712,714,714,705,708,704,706,707,707,710,710,704,708,708,715,713,708,705,712,713,713,716,708,713,717,722,721,719,710,714,721,719,711,712,710,709,709,714,712,716,712,715,712,711,715,718,714,706,712,716,710,708,710,717,723,715,715,716,716,726,723,728,718,719,727,749,32001,32001,1076,1094,1099,1102,1105,1104,1108,1106,1105,1112,1112,1114,1113,1112,1112,1111,1110,1118,1121,1118,1118,1114,1113,1110,1111,1121,1111,1112,1110,1105,1099,1101,1100,32001,32001,732,690,675,664,659,655,655,649,648,648,642,640,643,636,633,631,623,627,628,626,620,617,619,619,619,622,623,617,621,622,617,617,618,32001
32001,725,732,731,733,726,731,734,733,735,736,729,730,729,730,732,733,736,744,743,741,738,743,740,738,736,738,743,745,748,749,743,745,745,742,747,748,744,742,745,735,735,737,732,729,729,732,725,722,731,730,735,739,741,738,738,742,745,742,740,746,748,741,744,745,746,750,749,746,747,747,755,750,749,747,753,751,756,758,751,750,745,744,750,749,748,741,747,741,752,751,32001,597,582,571,565,561,558,550,551,546,547,548,553,547,546,548,553,552,562,561,569,569,580,580,589,599,601,634,644,696,712,723,720,732,733,726,735,728,734,728,728,719,727,728,731,733,739,736,726,726,732,728,721,720,724,725,727,722,724,727,721,723,722,719,721,723,717,721,710,718,720,718,720,720,722,718,709,714,710,719,728,724,714,721,719,721,710,716,714,711,706,709,705,709,703,701,705,699,701,708,704,709,710,705,706,703,707,706,703,699,704,708,705,710,705,708,711,714,715,716,708,710,718,716,709,707,708,709,708,710,708,715,709,712,710,707,710,710,708,702,707,710,707,706,705,707,716,708,711,713,711,721,718,723,718,713,716,727,752,32001,1058,1091,1100,1107,1106,1106,1111,1109,1111,1116,1115,1119,1120,1113,1113,1113,1113,1121,1121,1122,1119,1124,1121,1118,1120,1131,1117,1118,1113,1108,1110,1101,1099,32001,32001,732,685,673,663,661,659,656,649,650,650,644,642,640,635,632,632,622,628,631,628,622,617,617,617,619,622,618,612,614,623,616,618,622,32001
32001,725,727,723,720,726,726,731,729,728,729,726,732,732,732,733,732,737,746,741,739,738,740,742,737,735,736,739,736,739,739,742,746,744,740,748,738,734,733,733,733,732,736,731,728,722,727,723,721,723,721,726,731,734,733,738,740,741,734,734,737,739,738,741,745,743,747,745,744,745,741,744,741,741,741,743,748,744,749,746,746,741,743,746,739,742,734,742,736,738,753,32001,612,587,579,568,566,561,555,551,553,548,547,552,550,551,550,553,550,564,563,571,566,576,579,591,599,601,627,644,689,701,717,715,726,723,717,726,725,725,722,721,715,718,718,724,724,732,725,720,723,727,726,721,717,719,723,723,712,719,723,717,719,719,717,717,718,710,715,704,709,711,711,710,709,714,713,706,706,705,714,723,719,711,714,713,713,704,706,707,708,705,704,698,704,699,698,703,696,700,706,702,705,706,700,703,697,703,702,704,701,699,705,698,705,704,705,710,712,712,711,707,707,714,710,706,705,705,704,702,702,704,712,708,707,702,701,705,703,706,703,707,704,703,703,703,707,712,705,709,704,708,712,708,712,715,706,709,715,724,32001,32001,1080,1098,1108,1106,1108,1112,1109,1116,1123,1120,1119,1121,1123,1120,1125,1119,1121,1125,1126,1122,1125,1127,1126,1124,1139,1128,1125,1115,1111,1108,1102,1090,32001,32001,720,684,673,666,660,659,658,654,651,652,646,645,643,638,635,635,626,630,632,628,620,616,618,620,622,622,621,615,619,622,621,620,624,32001
32001,713,721,718,717,718,721,732,733,733,729,726,724,726,728,730,726,730,735,735,732,732,728,732,731,730,736,741,741,740,743,740,739,730,729,738,725,728,730,729,725,727,723,725,724,722,724,721,719,718,717,722,731,733,730,735,736,737,731,728,729,733,730,738,741,733,737,737,741,740,736,743,736,737,737,731,737,736,734,734,735,733,732,739,733,730,731,733,734,725,737,722,636,610,590,574,565,566,560,554,553,552,552,556,551,553,553,554,553,565,564,566,568,575,580,592,599,604,629,649,689,700,715,712,724,720,718,724,723,719,719,714,714,712,714,715,721,725,722,719,717,720,721,717,711,715,715,720,710,712,715,706,710,711,707,709,709,704,706,696,701,704,705,701,701,705,704,702,701,702,713,714,710,707,710,707,710,700,697,700,702,704,702,699,703,694,691,693,691,694,697,699,698,699,694,697,692,696,693,700,697,691,699,693,701,698,700,704,705,703,705,701,701,707,707,701,700,703,702,699,699,703,710,702,704,700,698,698,697,701,703,702,702,702,698,695,699,705,699,702,695,698,701,697,705,702,696,698,706,710,746,32001,1056,1091,1109,1110,1110,1116,1115,1118,1125,1122,1122,1125,1123,1121,1129,1123,1124,1127,1128,1121,1133,1122,1123,1126,1133,1128,1128,1119,1112,1106,1095,1088,32001,740,705,679,674,666,664,661,656,656,654,656,649,649,650,648,644,640,632,634,635,635,620,619,621,618,617,624,625,618,619,624,623,616,624,32001
32001,717,717,714,711,714,720,728,729,729,725,726,726,728,732,726,724,729,731,729,726,725,723,726,726,724,722,731,731,741,735,730,731,738,733,732,726,725,726,724,719,717,717,716,717,719,720,715,716,710,712,719,730,731,730,730,730,734,730,727,727,732,729,738,736,730,727,733,739,734,730,735,732,736,735,725,734,729,727,723,729,730,728,737,727,725,724,719,726,717,715,730,651,623,597,577,574,566,563,557,557,554,556,556,554,553,552,555,555,563,568,566,570,576,579,595,600,607,631,653,687,699,710,708,720,712,713,720,717,717,714,710,708,705,709,709,720,717,714,713,712,713,712,713,705,706,704,712,707,710,707,698,703,703,698,703,698,696,697,694,695,698,699,694,697,699,700,699,694,698,708,705,702,700,701,700,701,697,694,697,700,702,703,698,703,690,686,689,687,692,693,693,695,695,693,695,690,692,691,697,696,686,689,686,695,694,695,696,699,697,693,694,694,702,697,696,696,698,701,696,694,696,698,701,699,694,692,692,691,696,697,697,696,696,692,690,693,698,692,694,688,695,695,694,700,698,696,698,700,700,717,32001,32001,1076,1102,1109,1114,1117,1118,1120,1124,1122,1125,1127,1120,1121,1127,1126,1123,1126,1128,1130,1133,1133,1125,1132,1135,1129,1133,1131,1117,1114,1104,1067,32001,719,689,674,673,666,668,664,658,659,656,653,651,647,646,645,642,640,633,633,638,635,626,622,620,621,619,625,623,622,622,632,629,621,627,32001
32001,704,703,705,705,705,713,718,720,732,722,718,719,723,726,725,725,729,732,731,727,723,723,725,723,721,721,728,728,732,729,726,726,727,720,725,721,726,720,716,713,717,716,709,708,710,714,708,712,707,710,712,726,727,729,724,729,728,727,721,726,728,727,729,726,724,722,727,732,729,722,730,726,728,729,722,732,728,728,724,726,721,718,728,724,719,720,709,716,713,710,723,682,636,603,584,581,567,563,555,557,553,558,555,556,556,554,557,556,562,570,563,573,580,577,597,603,610,634,653,681,691,703,703,711,707,711,714,714,711,709,710,707,701,705,705,716,711,711,707,708,708,708,711,700,700,700,708,700,702,702,694,696,699,694,695,693,692,688,685,687,693,693,692,693,695,693,695,686,694,700,699,695,695,696,694,698,694,691,692,693,698,699,696,698,687,688,688,684,689,687,688,684,685,686,688,686,686,686,689,690,681,685,680,691,691,693,695,694,689,685,689,690,692,691,688,689,691,694,689,690,688,689,700,698,690,688,690,685,690,689,690,689,689,686,685,689,692,685,689,683,690,685,690,689,690,687,693,691,696,709,741,32001,1047,1095,1110,1116,1119,1119,1125,1127,1125,1126,1127,1130,1127,1130,1127,1130,1134,1136,1134,1135,1123,1126,1128,1132,1125,1124,1115,1117,1118,1095,1063,32001,716,693,678,675,673,670,667,660,658,655,655,651,647,645,642,639,636,629,631,640,637,630,626,622,624,624,628,624,629,625,634,636,627,630,32001
32001,705,710,709,708,712,716,716,716,717,718,715,710,712,717,724,726,726,724,725,718,715,716,715,716,716,717,724,727,730,722,714,720,728,723,717,714,717,716,712,707,709,704,699,704,709,712,707,711,702,707,709,720,723,723,723,728,723,718,717,720,722,721,720,720,715,716,719,725,721,717,723,723,729,729,718,726,726,717,716,716,713,709,717,720,716,716,703,707,705,703,707,712,656,608,590,586,573,569,561,563,557,556,556,556,557,559,561,559,562,571,563,574,583,583,600,602,612,625,652,676,692,700,700,705,704,711,710,711,708,707,708,701,697,700,695,705,707,704,704,705,701,705,712,700,701,694,702,691,694,691,688,690,692,686,692,689,685,683,679,679,690,687,686,688,691,690,694,685,690,694,694,689,686,689,688,693,693,687,688,688,694,692,691,690,683,683,686,684,682,681,681,682,682,681,683,681,682,682,687,686,677,683,678,687,686,686,687,686,681,682,684,686,685,687,686,683,684,689,687,686,684,687,696,690,683,684,684,676,682,683,684,682,688,684,681,684,687,684,685,682,686,681,685,683,685,682,689,689,690,702,726,32001,32001,1084,1111,1120,1128,1125,1129,1134,1130,1132,1130,1133,1129,1137,1137,1140,1140,1140,1136,1136,1129,1130,1131,1140,1130,1127,1130,1137,1141,32001,32001,32001,711,683,675,679,676,671,668,658,658,655,654,652,647,647,644,643,640,633,633,637,633,638,630,622,625,622,627,627,623,624,634,637,624,625,32001
32001,706,710,705,703,710,710,708,718,716,716,717,710,713,718,716,714,720,714,718,717,711,714,715,713,711,708,713,720,725,717,716,721,725,717,713,707,707,707,702,699,702,699,693,696,708,708,706,707,700,704,706,720,718,718,722,723,724,716,713,719,722,724,718,717,714,720,715,724,717,715,715,719,719,723,713,721,719,708,708,705,707,702,705,709,705,710,696,700,699,701,696,710,664,622,601,594,577,575,568,569,564,558,556,556,558,558,559,560,560,569,566,571,582,584,601,602,617,629,647,677,687,694,699,701,704,708,708,706,705,707,709,694,692,695,691,691,700,699,698,698,696,701,706,697,700,693,698,690,693,691,684,686,690,682,686,682,681,681,677,674,686,684,684,688,683,685,690,686,688,691,693,686,679,681,687,691,689,683,687,680,690,686,686,682,678,679,679,677,677,678,678,675,675,680,680,680,681,678,681,687,675,679,676,684,683,678,678,679,676,680,681,689,684,685,686,681,683,687,688,683,681,679,689,683,677,681,680,675,678,677,676,676,679,677,674,677,680,678,682,678,681,679,678,679,675,674,683,682,684,696,713,712,32001,32001,1102,1120,1125,1128,1128,1129,1133,1134,1138,1143,1138,1138,1137,1143,1142,1144,1142,1134,1138,1137,1139,1136,1130,1127,1129,1132,32001,32001,32001,32001,32001,682,680,682,679,679,674,667,665,659,657,654,650,650,648,643,643,638,642,640,637,639,634,628,626,624,625,621,617,626,631,635,626,625,32001
32001,703,703,701,698,704,708,708,711,713,715,714,706,710,715,711,708,712,714,716,713,717,716,711,707,707,708,715,720,716,713,711,717,716,718,718,708,707,706,696,698,696,697,693,695,702,700,695,698,695,697,701,710,711,712,714,721,721,718,712,715,722,714,716,711,707,711,712,717,715,710,713,710,713,718,711,714,714,700,701,697,697,697,694,698,700,704,688,696,694,701,693,693,694,639,611,600,584,583,573,573,565,562,559,565,562,557,559,559,564,569,569,573,583,588,596,602,616,624,642,669,682,687,692,695,699,699,698,694,699,703,704,687,690,689,686,687,697,695,694,694,696,699,700,690,694,689,694,689,688,685,675,679,685,673,678,677,677,675,672,671,681,678,680,680,682,683,688,684,684,688,685,681,676,677,684,689,680,678,683,678,684,682,681,679,677,677,678,670,671,674,676,675,671,677,677,677,682,672,675,682,671,672,672,676,678,671,674,673,673,677,677,685,682,682,682,674,675,673,679,681,676,673,682,678,673,679,675,670,670,674,671,672,675,670,668,676,675,675,674,677,674,671,673,673,672,672,680,673,679,687,702,701,32001,32001,1092,1117,1128,1127,1130,1130,1131,1133,1134,1143,1133,1135,1140,1144,1140,1145,1142,1137,1137,1139,1136,1142,1135,1123,1133,32001,32001,32001,32001,32001,32001,701,682,678,678,677,674,672,670,665,661,659,655,654,648,645,650,648,646,644,633,632,629,623,623,627,626,624,620,629,637,634,634,629,32001
32001,698,700,697,698,700,701,705,704,703,705,708,705,708,712,705,701,709,714,709,706,711,710,709,703,703,705,716,707,711,706,712,712,709,708,704,703,704,700,690,688,690,694,688,690,700,695,696,698,698,700,703,706,706,704,708,713,713,710,705,707,713,705,709,702,701,704,698,702,701,702,705,704,704,704,702,700,708,696,694,690,695,695,688,693,695,696,686,694,690,698,686,682,697,651,609,598,583,579,572,571,566,564,563,568,566,560,563,562,569,574,568,577,581,589,596,600,617,622,638,672,680,686,690,690,691,686,691,686,689,696,697,681,688,683,682,679,687,686,684,684,685,690,694,684,687,683,686,677,678,676,670,675,679,667,673,674,670,670,668,669,676,674,679,676,676,678,677,679,679,683,682,677,673,674,681,684,677,678,678,673,675,677,676,675,669,668,675,668,668,671,670,669,668,674,672,671,675,666,670,677,668,663,662,669,672,669,669,670,672,670,670,679,675,677,675,670,669,668,677,678,674,670,674,672,666,673,674,669,664,669,668,667,672,668,665,674,674,674,671,675,670,669,668,665,669,673,683,671,675,685,695,689,728,32001,1057,1106,1121,1130,1135,1135,1136,1140,1143,1145,1136,1142,1142,1147,1145,1149,1148,1144,1144,1145,1142,1147,1140,1133,1145,32001,32001,32001,32001,32001,32001,704,686,679,677,675,674,673,673,668,665,664,659,655,651,651,661,667,667,653,636,632,629,628,629,627,629,628,626,630,637,639,633,636,32001
32001,697,699,700,698,702,703,705,702,702,702,703,698,697,697,700,697,700,700,693,696,698,702,703,699,702,698,704,705,696,702,706,700,710,698,693,690,689,689,685,684,681,685,682,681,687,685,693,697,693,693,695,697,700,700,702,711,704,701,697,699,705,704,702,694,694,697,697,705,699,692,698,700,696,700,698,694,702,692,691,688,693,691,684,687,687,687,682,688,686,695,684,677,682,674,626,604,590,581,575,570,567,565,563,572,566,564,566,566,571,578,571,575,575,584,593,597,613,615,637,669,674,679,681,679,683,679,684,678,690,692,691,679,685,676,679,673,684,680,680,684,679,684,680,677,683,684,683,678,673,670,668,671,673,664,668,671,666,668,665,664,669,665,672,669,672,676,669,676,679,681,677,674,673,671,679,678,676,672,675,670,669,670,670,669,670,666,671,664,664,669,667,665,663,666,667,668,667,661,665,674,663,661,661,666,668,667,666,663,666,668,665,674,669,674,670,662,664,662,667,671,669,664,667,665,660,670,667,663,658,666,663,664,670,665,659,669,670,671,667,671,664,666,663,662,663,666,676,669,670,676,687,679,703,32001,32001,1090,1118,1132,1137,1135,1137,1145,1143,1145,1140,1150,1145,1149,1147,1150,1148,1154,1147,1144,1144,1149,1145,1146,1146,32001,32001,32001,32001,32001,32001,714,701,686,683,680,679,676,675,668,667,664,658,659,656,660,678,690,679,648,632,630,627,625,629,625,628,633,630,635,639,649,638,647,32001
32001,693,693,687,690,693,701,700,698,701,694,699,698,696,699,697,694,699,701,698,705,699,702,701,695,702,702,717,705,698,698,707,698,696,690,690,685,685,681,679,682,680,685,678,680,685,683,691,692,685,691,690,689,693,696,695,704,698,694,686,695,691,694,695,693,688,693,692,698,693,691,694,694,693,693,692,690,689,686,685,681,685,684,678,683,682,683,683,682,678,689,678,672,674,679,640,607,594,583,575,568,567,565,563,570,567,564,567,567,571,578,573,579,581,586,593,598,614,614,638,667,672,678,677,674,676,672,679,680,683,683,684,676,682,674,675,671,681,673,676,679,676,682,676,675,679,681,677,672,673,669,666,665,667,659,666,665,662,666,663,660,663,658,663,664,661,663,661,673,670,674,672,670,671,669,672,672,669,671,674,668,663,663,668,665,668,663,664,658,662,668,663,658,659,659,661,662,657,656,665,670,660,657,659,660,657,657,659,661,660,665,659,661,658,668,664,657,661,655,660,663,665,661,660,659,655,663,663,661,654,662,658,661,663,661,655,665,668,666,661,667,662,663,660,657,662,663,670,664,667,671,677,670,686,711,32001,32001,1103,1121,1133,1137,1133,1143,1143,1148,1137,1145,1147,1152,1146,1153,1148,1161,1153,1150,1146,1159,1148,1137,1099,32001,32001,32001,32001,32001,32001,704,700,687,685,681,677,677,677,671,669,665,661,672,677,688,698,699,664,643,633,629,626,625,633,629,630,634,637,641,644,646,638,649,32001
32001,693,692,693,697,696,698,693,689,686,690,696,697,697,696,696,697,696,695,694,695,689,693,697,691,706,701,700,699,697,687,690,693,689,685,685,678,681,673,677,676,677,680,680,680,680,683,688,686,679,686,683,679,683,685,686,700,692,691,684,687,689,689,691,687,679,688,686,688,685,687,686,688,684,686,689,685,681,680,680,674,675,677,670,673,674,678,681,680,671,684,677,666,672,674,660,625,603,592,580,573,571,567,570,573,570,566,570,572,569,578,574,583,581,587,591,595,606,614,639,668,670,668,669,664,666,664,670,672,675,674,677,674,679,672,676,670,678,671,676,678,674,674,668,670,671,677,675,674,666,664,662,661,658,657,660,660,656,661,660,658,658,653,651,658,656,657,656,668,663,670,670,668,667,668,670,669,668,667,670,664,656,660,662,659,664,662,659,658,661,660,661,654,656,657,657,660,660,656,659,662,655,655,655,654,654,655,659,657,658,661,657,654,653,663,660,651,655,654,657,660,659,655,657,657,651,659,660,657,652,660,653,657,657,657,653,660,665,662,657,665,661,664,661,656,659,657,665,664,663,669,667,663,672,683,727,32001,1090,1125,1138,1140,1139,1145,1145,1152,1149,1146,1145,1156,1147,1156,1155,1164,1161,1150,1149,1147,1145,1164,32001,32001,32001,32001,32001,32001,783,734,701,693,689,684,682,681,679,674,670,666,665,685,698,702,705,675,646,641,636,634,627,627,640,634,634,642,638,641,643,646,644,653,32001
32001,695,711,32001,683,684,688,688,685,684,683,686,688,688,687,692,688,694,690,696,693,690,693,693,689,690,688,690,696,692,689,689,683,675,678,678,678,674,669,668,669,673,675,668,674,674,676,681,679,678,681,680,676,678,684,688,697,688,686,684,683,682,682,683,679,671,679,679,683,679,679,672,678,675,677,677,675,669,671,673,671,671,670,666,669,669,672,677,671,666,677,670,662,668,667,668,634,606,595,590,580,570,567,564,571,567,566,568,571,568,574,571,577,578,588,593,594,601,614,638,664,665,664,664,660,659,660,661,664,667,668,670,670,673,668,670,666,671,665,670,673,672,669,659,664,667,671,668,667,665,663,660,657,655,653,653,652,651,654,657,653,650,650,647,654,651,651,648,667,660,671,667,670,662,661,667,666,665,660,666,653,649,656,658,656,660,657,654,654,659,654,655,651,656,656,656,657,657,653,655,658,650,649,654,651,651,648,650,653,655,654,651,650,652,659,654,645,653,650,654,656,656,653,653,651,649,656,653,654,648,657,653,655,652,652,650,655,659,657,656,660,658,661,657,651,660,654,663,661,657,659,660,661,665,670,683,32001,32001,1108,1127,1140,1139,1142,1144,1151,1149,1145,1146,1149,1149,1165,1155,1161,1153,1156,1159,1161,1161,1143,32001,32001,32001,32001,32001,32001,32001,751,707,694,690,684,684,683,679,674,668,670,682,702,708,710,696,659,643,637,632,637,629,630,639,637,634,645,634,647,639,647,658,659,32001
32001,688,686,678,679,680,689,685,683,685,683,683,687,690,687,684,684,688,689,687,685,682,686,682,676,682,681,684,685,684,682,684,681,670,671,668,669,667,663,659,663,669,671,666,676,674,675,679,678,681,678,676,674,668,673,677,685,680,673,679,673,673,677,673,670,666,672,672,676,672,674,667,674,668,671,672,671,667,668,669,665,665,667,665,664,658,664,671,662,660,666,661,655,662,658,662,645,620,607,596,579,571,569,569,572,572,569,572,571,571,576,572,579,577,583,591,595,603,615,635,658,657,655,656,658,659,660,657,658,657,662,662,667,668,666,671,666,666,659,664,668,662,665,653,660,660,661,663,662,660,659,664,654,650,649,648,646,648,649,650,652,644,645,640,651,647,646,646,661,656,666,663,667,660,654,658,662,663,654,658,651,649,653,654,653,658,653,651,648,656,648,652,652,655,654,650,655,653,651,653,656,649,643,646,645,645,645,644,642,648,645,644,645,650,651,649,640,649,644,646,642,647,647,651,647,645,653,651,650,647,653,652,656,651,651,649,652,654,655,654,655,655,660,655,650,653,652,658,658,655,662,662,661,670,665,669,705,32001,1085,1122,1133,1139,1143,1144,1145,1149,1148,1147,1153,1153,1161,1156,1155,1159,1156,1156,1154,1159,32001,32001,32001,32001,32001,32001,799,754,727,706,696,695,687,689,688,682,680,674,685,704,714,716,708,676,653,641,642,636,638,633,635,646,640,645,652,645,646,639,649,656,662,32001
32001,679,680,676,674,677,680,680,690,686,682,682,687,685,684,681,684,679,680,682,679,675,686,677,666,674,677,676,681,682,683,679,677,662,668,668,664,662,656,659,661,662,668,665,671,668,672,670,670,673,672,670,669,668,673,670,680,676,672,677,672,668,668,667,664,662,672,669,671,665,666,661,667,658,660,659,662,659,660,661,657,656,663,662,657,653,657,663,654,653,656,652,653,657,650,655,654,622,611,604,587,586,578,578,574,573,573,570,576,571,573,574,576,578,583,590,596,603,616,631,651,652,652,650,651,653,655,647,654,656,662,660,662,667,663,667,663,664,660,665,664,661,659,648,655,655,657,659,653,654,654,660,648,646,647,645,643,649,646,648,650,641,648,641,643,643,643,640,654,649,657,657,665,656,649,654,661,657,650,659,652,649,652,655,654,661,654,648,644,650,642,645,644,653,650,641,646,646,646,649,649,645,640,643,642,644,644,643,639,645,643,641,640,650,646,645,639,644,644,643,638,643,642,648,644,638,645,645,646,645,650,649,652,643,644,646,647,649,651,652,651,653,660,652,648,653,652,653,655,654,657,659,656,658,656,659,666,32001,32001,1107,1133,1141,1144,1145,1145,1148,1141,1145,1144,1150,1164,1169,1168,1167,1165,1163,1165,1164,1164,32001,32001,32001,32001,32001,789,747,726,710,697,693,690,688,687,680,677,679,700,713,721,717,693,663,649,638,639,636,640,636,640,644,641,641,650,647,651,644,656,658,661,32001
32001,669,676,673,670,672,674,674,684,682,678,676,681,680,678,677,680,676,674,677,665,661,672,667,668,675,672,674,679,681,674,673,666,655,656,655,657,656,652,659,658,662,667,659,668,667,667,666,664,667,664,664,665,660,667,664,673,672,666,668,666,664,666,663,660,663,672,668,663,659,663,657,658,654,654,652,654,650,657,656,651,650,660,659,651,650,652,660,650,650,656,653,652,656,650,652,649,639,614,604,592,588,582,584,576,575,573,572,578,571,574,573,575,582,583,595,600,605,616,629,642,641,648,649,651,654,652,642,649,647,655,652,657,658,652,659,661,663,659,661,656,654,654,645,653,652,652,656,650,653,650,654,644,642,647,640,639,647,646,641,643,638,647,638,637,641,639,638,649,642,651,654,659,650,644,650,656,653,648,655,650,648,649,654,650,657,655,648,641,642,638,639,641,648,646,638,644,642,640,648,647,645,639,641,636,640,639,639,633,642,641,635,635,646,641,644,636,638,640,636,636,640,635,640,641,634,638,642,641,641,642,641,644,640,642,644,646,645,647,651,650,647,654,644,647,645,646,649,650,653,656,659,651,655,650,656,654,32001,32001,1083,1118,1135,1140,1143,1144,1143,1143,1146,1152,1152,1164,1164,1165,1161,1164,1156,1165,1162,1169,32001,32001,32001,32001,32001,771,744,723,710,699,698,696,690,684,682,684,689,706,714,719,706,670,658,648,641,643,643,639,639,642,649,649,646,652,655,660,656,665,669,671,32001
32001,663,676,672,666,666,666,665,669,675,670,665,669,669,674,675,678,671,671,673,659,660,667,663,666,674,662,660,664,667,663,663,659,652,655,650,656,654,647,654,653,656,657,653,664,663,660,662,657,661,661,659,661,655,666,662,667,670,665,664,662,661,662,657,659,658,665,663,657,651,658,656,654,647,649,647,649,649,654,656,645,643,654,655,648,646,650,656,646,647,647,654,654,651,643,652,646,645,620,607,593,584,583,582,579,579,575,573,576,571,576,577,576,586,587,597,602,604,613,627,633,633,639,640,644,644,647,640,648,643,653,652,657,654,649,654,655,657,656,660,649,647,647,637,645,646,649,651,651,649,646,648,643,635,645,637,637,642,640,635,635,631,643,636,634,641,636,638,644,638,640,643,656,646,642,643,649,648,644,650,642,641,643,646,643,649,647,643,640,640,635,632,636,642,640,635,639,637,635,642,639,641,638,638,633,637,636,639,631,637,638,633,631,645,637,640,631,634,635,632,631,636,631,636,637,631,636,639,636,638,637,638,641,634,636,642,645,638,643,647,646,641,649,639,644,643,642,647,648,651,651,651,646,646,643,649,645,664,32001,32001,1095,1115,1128,1136,1137,1133,1138,1141,1146,1142,1148,1151,1159,1156,1160,1160,1164,1161,1200,32001,32001,32001,32001,771,757,736,721,708,697,695,695,688,679,675,679,693,708,711,701,676,658,658,659,645,646,647,644,647,648,646,643,646,659,661,656,652,657,671,668,32001
32001,666,671,671,660,661,661,662,662,673,674,672,674,675,672,673,673,673,659,670,661,659,656,659,656,657,660,661,668,658,656,651,649,648,651,646,651,653,649,650,649,653,655,654,664,659,658,653,648,650,651,651,655,650,659,654,658,666,661,663,658,663,657,655,659,651,655,651,649,647,648,646,647,638,642,643,641,644,646,649,639,637,647,652,645,644,645,644,636,642,644,651,652,650,640,644,639,636,621,609,594,584,585,580,579,579,577,574,578,576,577,579,579,584,588,595,602,604,610,625,623,624,629,631,632,635,640,640,648,645,655,652,653,652,646,651,651,656,654,658,646,647,647,634,639,639,639,643,644,640,637,645,638,629,639,634,636,636,635,628,628,625,635,629,628,637,632,634,639,639,635,639,652,646,638,641,647,643,639,642,639,639,641,645,640,645,645,634,631,632,623,622,629,627,629,629,631,627,627,633,636,636,629,633,626,627,628,627,625,633,631,627,628,636,633,637,629,630,632,628,625,630,628,630,631,627,630,634,630,635,633,632,636,627,632,637,640,638,643,643,643,639,646,636,643,639,637,644,648,646,644,645,639,640,640,639,634,644,32001,32001,32001,1071,1088,1104,1100,1103,1105,1117,1106,1113,1118,1128,1140,1156,1161,1156,1166,1163,1177,32001,32001,32001,32001,765,750,735,719,708,702,697,697,685,678,678,686,702,707,698,680,673,663,657,653,647,648,646,641,648,647,650,650,654,661,665,660,654,658,671,677,32001
32001,663,664,661,656,658,659,662,661,670,677,672,667,664,659,660,661,658,662,664,651,653,653,656,650,653,641,648,652,656,649,649,648,641,643,642,644,645,643,642,640,644,645,650,655,653,654,653,648,650,650,649,648,646,654,654,654,657,653,653,654,660,653,654,649,642,643,641,641,639,643,640,636,635,633,641,639,643,645,643,633,634,643,647,640,641,637,637,633,641,638,645,646,640,636,638,633,629,619,604,595,586,586,583,581,580,578,575,579,579,582,581,581,585,589,595,603,604,612,617,620,619,627,629,630,631,634,639,641,643,652,648,650,650,643,642,644,646,648,646,640,646,640,635,644,637,638,640,641,636,633,642,638,629,636,634,637,633,628,624,625,619,633,628,626,635,627,628,633,636,629,634,644,642,634,638,642,636,636,639,639,637,634,639,636,638,641,627,625,626,604,603,606,604,604,607,609,609,613,612,618,617,613,618,615,611,616,612,613,621,620,617,615,620,620,623,620,617,621,616,616,620,617,616,619,619,619,622,620,624,626,622,625,621,624,627,628,627,630,631,629,627,632,625,633,630,632,636,638,639,638,634,634,631,632,631,625,623,648,32001,32001,32001,32001,32001,32001,32001,32001,32001,32001,32001,32001,32001,32001,32001,1126,1155,1175,1180,1167,32001,32001,32001,775,750,736,727,719,709,705,697,693,688,676,674,683,693,689,681,675,670,662,662,667,660,657,645,644,647,649,655,654,651,661,666,661,654,663,675,32001,32001
32001,658,658,659,659,655,656,651,655,658,658,660,661,659,661,663,663,656,656,659,654,658,654,656,650,648,639,650,654,651,643,643,642,641,646,638,637,634,633,637,635,640,643,646,648,649,648,645,644,646,647,645,648,644,650,645,650,649,652,651,651,656,647,648,644,638,635,637,635,635,641,639,634,631,631,634,636,638,642,641,631,633,645,645,640,639,635,633,632,636,638,646,640,630,630,628,628,626,614,603,596,591,586,583,581,582,579,575,577,578,582,581,582,584,585,590,598,605,607,611,616,616,624,627,625,628,631,636,636,640,649,645,648,646,638,642,641,642,643,641,637,641,636,632,638,630,633,631,636,628,626,632,632,623,632,627,627,628,624,623,624,617,628,627,625,634,629,624,628,630,625,631,641,641,634,638,637,633,634,636,637,635,629,636,634,635,633,622,614,611,598,597,598,596,597,599,600,599,600,601,605,607,604,609,609,603,606,602,598,607,605,606,604,606,610,612,614,607,611,610,606,608,612,609,609,614,612,613,613,617,620,615,616,614,619,618,614,616,616,617,613,613,614,611,617,615,614,620,627,624,626,620,622,621,620,620,614,610,624,629,630,635,634,638,645,643,645,643,637,642,645,643,670,32001,32001,1132,1160,1160,1160,32001,32001,32001,771,740,729,725,721,709,699,692,691,689,680,679,682,677,672,668,667,668,670,665,670,668,660,659,659,650,655,655,650,651,656,658,662,661,664,670,32001,32001
32001,656,655,656,655,652,652,653,650,649,649,654,661,654,655,654,657,654,658,657,645,654,649,645,643,639,637,637,635,632,637,635,634,637,645,634,633,634,632,636,634,635,638,639,642,642,642,644,638,637,643,642,641,640,645,639,646,644,647,641,650,644,643,647,640,638,635,636,633,630,635,635,633,632,628,629,632,633,635,629,626,632,639,637,634,633,632,629,629,631,631,640,629,623,622,625,625,624,612,604,595,587,585,580,579,576,577,576,577,579,579,581,583,583,587,595,598,599,599,610,611,613,623,624,620,623,626,633,633,638,642,640,641,640,635,640,631,631,631,630,632,636,630,626,636,629,634,632,633,627,621,628,625,618,627,624,621,619,617,619,621,613,624,621,620,627,622,621,625,626,622,627,633,633,631,635,634,631,629,628,627,629,627,633,631,630,632,615,612,609,596,593,592,592,592,596,597,596,597,598,599,601,598,599,602,597,596,600,596,603,601,601,599,601,607,606,610,602,604,605,600,603,608,605,605,608,604,609,607,609,613,610,613,613,616,614,610,615,614,614,610,611,610,609,612,615,612,618,621,617,618,613,615,618,618,616,616,603,616,621,618,621,619,622,624,619,626,622,619,623,620,622,641,675,32001,32001,1144,1155,1160,32001,32001,772,754,731,727,725,723,713,700,692,692,683,677,674,675,672,672,668,662,666,666,658,663,667,663,661,661,656,656,651,658,664,663,667,676,668,668,32001,32001,32001
32001,651,648,648,650,652,652,647,647,650,653,654,652,650,653,650,649,653,647,646,639,664,655,645,644,635,631,633,631,632,635,633,632,636,639,630,628,631,631,634,631,635,638,637,637,637,640,638,632,633,640,638,634,640,644,634,644,640,641,636,644,636,637,640,632,629,629,631,628,626,630,634,635,631,626,625,628,626,624,622,620,626,632,630,626,622,620,615,620,623,627,634,622,619,620,618,619,617,607,600,597,591,587,587,579,578,576,573,576,579,578,581,585,586,590,591,590,595,597,606,607,607,618,623,618,621,619,631,627,632,638,636,635,637,629,631,629,629,623,626,631,633,630,622,632,624,628,627,629,621,618,624,617,612,617,619,613,614,612,617,617,612,618,618,619,623,621,618,623,622,617,623,631,629,628,631,628,625,621,623,625,622,624,623,627,625,627,608,603,599,590,589,588,590,591,593,596,593,597,596,594,596,596,593,595,595,592,595,592,599,595,602,598,597,602,598,605,600,599,601,597,599,603,598,600,606,600,603,603,603,606,606,608,607,609,609,603,608,610,609,606,609,610,607,608,613,609,613,614,614,613,614,613,615,616,616,612,602,610,614,612,616,615,617,614,617,624,618,616,619,617,618,631,644,32001,32001,1129,1152,1157,32001,32001,32001,758,731,727,726,723,711,700,692,694,687,675,672,672,671,670,670,668,667,666,661,662,665,659,659,658,657,658,657,664,664,674,665,683,686,32001,32001,32001,32001
32001,652,652,649,649,652,656,652,648,645,649,651,648,646,650,648,647,649,654,645,638,638,637,636,638,638,633,631,632,632,628,628,631,634,633,627,630,628,627,629,627,628,634,630,633,632,637,634,629,631,640,639,634,636,639,628,632,631,632,630,636,632,633,639,630,623,627,629,628,627,626,629,633,625,622,624,623,623,625,622,620,624,629,627,622,615,615,612,615,618,619,623,616,610,612,613,613,608,602,595,596,590,588,587,580,581,576,576,581,582,583,586,587,581,581,583,588,594,598,604,603,604,616,618,616,617,616,626,623,629,628,629,629,629,626,626,625,623,620,619,626,628,627,620,627,623,627,626,624,617,616,620,613,608,610,620,611,610,610,613,612,606,612,610,614,617,616,614,618,620,616,617,625,624,619,625,622,620,615,618,619,617,621,621,620,616,622,599,597,593,589,584,583,585,585,593,589,588,592,595,591,589,593,589,590,594,589,591,590,597,594,596,596,596,602,598,603,598,599,599,597,599,600,594,598,602,597,600,596,598,603,607,604,608,607,606,601,606,603,606,602,607,607,601,602,605,605,608,612,607,607,608,608,609,610,611,607,598,606,608,610,609,609,609,610,611,618,611,608,615,615,613,623,631,676,32001,1095,1141,1157,32001,32001,32001,748,729,723,724,721,710,704,694,695,687,679,675,673,669,669,669,665,662,667,665,665,666,664,661,660,657,656,663,664,663,671,669,673,32001,32001,32001,32001,32001
32001,32001,32001,642,644,642,641,646,642,639,647,652,646,645,644,644,645,654,649,647,639,635,633,631,633,637,632,629,630,624,624,624,627,628,624,621,618,622,621,621,620,623,629,627,629,630,636,627,628,633,643,635,628,629,633,625,626,628,629,624,628,628,630,635,625,620,625,627,626,628,621,626,625,620,618,621,621,617,622,615,613,619,618,620,620,612,611,607,610,611,615,615,609,604,603,605,606,603,598,595,595,587,584,582,577,576,576,574,577,576,575,578,578,579,582,586,589,591,596,599,598,599,609,612,613,613,612,622,618,622,623,621,623,621,620,623,619,612,610,611,619,624,623,618,623,620,624,621,621,616,613,612,605,605,606,613,606,610,609,609,608,603,605,606,613,610,610,612,614,613,612,609,618,620,617,623,620,619,613,615,616,612,617,617,616,614,621,602,596,592,586,581,580,584,584,591,587,588,589,588,589,586,590,586,585,592,588,592,589,595,593,594,595,594,600,595,603,593,594,593,590,593,597,592,592,597,592,595,592,592,598,603,601,602,603,604,599,605,602,603,601,607,604,598,598,602,601,601,605,603,603,604,607,606,609,609,603,594,599,604,603,599,599,604,606,608,612,609,606,612,613,610,618,621,637,32001,32001,1126,1148,1146,32001,32001,762,734,726,725,721,704,700,694,697,685,681,678,672,669,670,670,666,663,668,660,662,667,663,661,668,672,664,668,666,670,672,672,688,32001,687,32001,32001,32001
32001,644,640,631,640,636,637,633,640,636,647,652,652,637,631,634,641,648,649,642,653,635,632,627,626,625,628,626,625,624,626,629,630,630,626,621,614,620,615,617,617,620,626,622,628,627,627,626,628,634,639,628,631,631,629,623,625,621,624,621,624,625,621,625,619,617,619,624,625,627,620,620,623,617,615,615,620,611,617,611,611,611,613,614,612,605,606,604,608,609,608,607,603,600,595,600,600,597,592,591,590,584,582,575,572,572,573,571,574,575,574,579,581,579,583,584,587,588,592,594,594,597,607,607,607,608,610,615,611,611,610,612,618,614,615,617,612,609,609,606,612,619,617,614,618,616,620,617,615,613,608,610,603,602,603,610,600,608,606,608,607,603,601,605,611,607,610,612,614,610,607,608,610,609,610,617,614,612,610,614,610,608,612,616,613,614,616,599,591,590,582,579,580,582,582,590,587,586,587,587,587,586,590,586,588,593,588,593,587,593,589,594,595,594,596,592,598,592,593,590,588,591,594,590,592,593,589,592,591,589,590,596,601,600,600,596,596,600,596,597,593,598,596,593,595,599,597,598,600,599,601,600,604,606,603,600,599,595,592,601,601,595,594,592,599,602,604,602,600,605,606,604,614,618,620,32001,32001,1101,1136,1142,32001,32001,786,750,729,725,718,709,701,696,695,689,681,677,669,673,674,677,668,666,669,662,664,668,666,665,667,668,663,666,665,673,674,673,688,684,704,32001,32001,32001
32001,633,634,637,636,633,632,640,640,638,629,634,637,640,634,634,640,651,662,638,634,628,621,619,617,622,619,626,624,618,624,627,626,626,620,618,612,617,615,616,614,620,618,619,622,623,627,625,622,627,631,626,627,625,624,617,618,618,618,613,616,615,614,618,615,614,616,616,618,616,613,617,620,615,612,611,611,604,612,606,609,606,607,611,610,605,606,601,606,604,606,603,600,597,592,594,597,597,589,587,586,579,576,572,572,573,573,572,575,576,574,577,579,581,581,582,587,586,590,592,591,593,598,598,601,602,605,605,605,601,602,608,611,605,607,611,607,604,603,607,611,615,615,607,611,613,615,613,609,607,603,601,595,597,599,601,595,599,599,600,601,598,596,596,604,596,602,608,610,607,604,606,606,603,607,611,610,608,606,610,604,604,608,611,609,606,610,597,585,584,581,578,578,580,583,588,584,584,582,583,583,579,583,579,583,591,587,585,585,592,586,587,590,589,593,590,592,588,588,584,587,587,595,588,588,590,587,587,588,584,589,593,594,595,595,591,592,595,590,591,592,595,591,590,591,596,596,595,594,593,600,598,604,601,599,598,595,596,592,600,600,591,590,591,594,598,597,599,596,602,603,599,612,615,617,632,32001,32001,1124,1160,1129,32001,32001,759,732,725,721,710,699,698,696,690,682,679,677,676,675,675,671,667,666,664,664,664,666,663,660,661,660,664,676,672,675,670,673,686,32001,32001,32001,32001
32001,636,631,632,626,622,629,633,636,636,637,633,632,625,632,628,630,642,635,32001,628,623,618,617,614,616,614,614,608,611,617,622,622,624,616,611,611,612,607,608,608,616,615,620,623,627,620,622,621,626,628,621,624,619,616,610,611,615,613,610,616,614,611,611,609,611,612,612,615,615,614,614,612,612,608,606,608,601,607,600,609,604,609,609,608,603,602,598,603,603,604,601,596,591,590,591,589,593,588,587,584,574,571,570,569,569,570,569,573,573,571,575,575,578,582,584,586,583,585,587,587,591,594,593,595,592,600,599,599,598,597,601,605,600,599,607,606,601,599,600,605,610,614,607,604,606,607,610,604,604,600,596,592,595,593,598,591,597,596,597,595,593,593,593,594,591,598,603,610,605,601,601,603,602,603,607,608,604,602,607,599,600,602,609,604,601,603,593,585,579,577,574,575,576,582,582,580,583,582,582,580,575,584,576,580,587,579,582,578,588,581,584,587,585,587,587,590,582,581,580,583,586,590,585,586,588,585,585,585,584,586,589,590,588,589,584,587,588,582,585,585,588,588,588,588,591,592,590,588,589,590,589,596,595,594,593,591,593,590,595,595,589,590,591,593,597,595,598,595,600,602,596,604,611,608,618,647,32001,1099,1143,1136,1100,32001,784,743,725,716,708,698,696,691,690,682,679,678,680,684,679,670,667,670,665,664,663,663,665,662,664,662,663,666,664,670,671,32001,32001,32001,32001,32001,32001
32001,633,629,641,631,626,629,631,633,630,636,638,628,622,623,623,32001,635,622,621,620,618,615,614,613,613,612,614,608,608,616,616,615,615,609,609,607,609,607,606,607,612,614,619,617,617,621,621,616,621,619,614,619,611,612,607,606,609,606,604,608,607,608,608,606,608,611,610,611,611,612,610,608,608,608,607,607,601,607,603,608,608,609,604,605,602,601,596,601,602,600,598,595,591,591,591,588,586,583,581,580,573,570,568,569,570,569,569,570,568,569,574,573,577,580,579,581,577,580,581,585,586,590,590,592,589,595,595,597,597,597,595,602,598,595,599,599,593,595,597,600,604,605,599,596,596,596,600,600,602,597,592,587,591,590,594,588,591,589,591,592,593,591,592,592,587,594,599,603,600,598,602,602,601,602,604,600,601,601,606,598,599,598,605,599,595,596,592,581,578,576,570,569,575,579,575,575,579,577,578,580,575,579,575,576,582,576,579,573,582,577,579,581,576,579,580,582,582,580,578,578,583,588,582,582,583,584,583,582,583,584,589,586,586,587,584,585,587,580,585,584,582,584,585,587,587,589,589,585,588,588,585,592,591,589,590,591,588,589,595,596,586,588,590,590,595,588,594,592,595,597,593,599,611,607,610,633,32001,32001,1126,1141,1116,32001,32001,762,731,717,708,698,695,692,690,683,679,680,682,688,681,674,669,673,668,670,665,664,670,659,660,665,669,662,671,674,32001,32001,32001,32001,32001,32001,32001
32001,32001,32001,631,629,630,625,630,631,629,635,635,630,630,626,621,32001,647,620,615,610,608,608,610,609,607,603,606,603,602,610,615,615,613,609,606,606,605,607,603,608,608,612,615,608,611,614,614,612,613,615,612,614,606,610,605,603,604,604,601,603,602,607,607,602,607,606,608,608,608,606,609,604,603,607,605,602,599,607,602,601,604,603,596,599,599,598,593,601,601,596,595,594,589,591,586,580,577,577,578,573,568,569,567,567,568,570,565,568,570,567,572,570,573,576,575,576,574,576,579,586,582,586,586,590,588,594,593,597,596,591,592,597,594,593,598,594,592,591,593,595,597,601,595,587,592,590,593,596,597,590,586,583,587,584,587,586,588,584,588,590,596,589,589,589,584,590,592,599,597,592,596,600,601,604,601,597,598,598,602,592,595,597,602,596,593,593,592,580,576,572,565,567,572,574,573,572,574,575,577,580,577,579,574,576,577,576,577,571,583,575,576,576,571,573,574,577,574,575,574,574,576,583,576,576,578,578,581,578,580,577,581,585,583,581,579,582,584,578,584,582,579,579,579,582,583,583,583,582,585,586,584,590,589,588,587,586,582,582,587,588,585,585,589,587,593,587,591,589,590,596,591,595,606,606,602,615,32001,32001,1097,1136,1140,32001,32001,32001,735,720,707,701,696,692,689,686,681,677,678,680,673,674,678,675,668,668,667,658,662,663,665,671,674,659,681,32001,32001,32001,32001,32001,32001,32001,32001
32001,32001,32001,32001,32001,621,621,621,625,627,618,630,629,632,634,32001,637,634,615,609,588,598,600,601,601,601,597,598,595,601,605,609,606,605,604,605,605,606,605,601,606,605,603,608,608,605,607,611,609,605,607,608,607,600,606,600,598,597,599,598,604,601,601,599,597,603,604,607,603,602,601,604,600,600,602,603,601,596,601,595,596,597,599,594,594,597,594,588,595,596,593,590,590,585,583,579,577,574,572,572,569,564,564,565,564,564,565,566,568,567,565,568,569,572,574,572,573,573,573,575,577,578,581,582,583,585,586,587,591,590,588,586,590,587,586,593,589,585,588,589,592,592,594,593,584,588,587,592,589,591,587,581,582,583,581,581,583,582,579,584,588,591,586,586,583,580,589,591,595,591,591,596,597,595,596,593,592,596,595,598,588,591,590,592,593,590,589,587,579,572,570,564,563,567,569,570,568,572,573,570,575,574,571,569,571,574,578,576,570,580,574,574,575,572,571,575,576,574,572,571,573,573,580,576,577,576,575,577,574,576,575,578,581,577,579,576,580,582,577,580,580,578,573,576,579,580,580,580,582,580,582,580,587,588,588,585,585,580,578,582,580,580,582,586,584,588,586,585,587,584,589,591,589,597,599,594,598,610,32001,32001,1127,1155,1151,1133,32001,767,725,712,702,699,693,689,685,684,684,683,685,678,676,678,677,673,670,676,673,675,671,666,671,687,32001,32001,32001,32001,32001,32001,32001,32001,32001,32001
32001,32001,32001,32001,628,616,613,615,620,625,632,618,620,628,626,621,617,610,609,605,600,594,594,595,597,597,595,594,595,599,601,603,601,602,600,603,608,608,605,597,601,600,601,601,601,598,602,608,610,606,604,603,605,598,600,597,595,592,595,595,599,597,594,596,594,600,600,608,602,602,599,603,600,599,601,598,595,591,594,592,592,593,591,587,589,590,588,585,588,589,587,587,581,577,574,570,572,572,569,570,569,565,562,561,562,563,563,563,566,565,563,564,567,568,571,571,571,566,571,570,572,574,582,578,576,580,581,581,586,586,587,583,588,584,583,587,586,582,585,586,586,587,588,591,581,587,586,587,583,582,580,577,578,582,579,578,581,582,578,580,585,588,586,586,581,580,585,584,588,585,588,589,593,592,596,592,592,593,594,592,584,586,585,588,589,584,585,578,574,569,566,562,561,563,566,564,561,566,567,566,568,569,568,565,567,569,573,572,568,573,569,568,570,567,569,573,571,570,571,571,570,570,573,569,575,573,571,575,572,573,574,574,577,574,576,572,578,575,575,576,578,577,571,575,579,577,576,578,578,576,579,574,584,586,584,583,583,579,576,581,580,582,582,586,581,581,581,579,583,580,583,586,583,593,595,592,594,599,32001,32001,32001,1156,1165,1151,32001,32001,744,720,707,699,697,692,688,683,682,687,682,676,674,673,679,674,673,674,681,678,676,668,662,32001,32001,32001,32001,32001,32001,32001,32001,32001,32001,32001
32001,32001,32001,32001,622,620,32001,611,621,628,618,615,612,612,32001,623,607,626,605,602,593,590,590,595,594,592,591,589,594,594,596,598,593,598,600,599,600,602,599,595,601,597,596,597,599,601,600,605,602,598,599,600,596,589,591,590,590,591,594,597,598,593,589,591,589,596,597,608,598,597,594,599,598,596,600,596,591,589,586,584,588,590,588,584,585,587,584,581,583,586,581,582,576,573,570,569,567,566,566,566,566,563,563,559,560,562,566,562,563,562,558,562,565,565,566,566,568,565,565,567,569,570,576,571,573,578,580,580,581,585,582,576,586,584,581,584,584,578,581,583,580,580,584,584,577,580,579,578,578,577,578,573,577,582,580,577,578,574,573,577,580,584,582,582,574,575,581,577,577,580,580,582,591,590,590,592,590,590,590,586,584,587,583,581,584,581,579,575,571,564,565,562,559,559,562,559,561,568,569,568,568,571,567,565,566,566,571,570,566,570,565,565,569,564,565,569,567,566,570,569,568,569,568,567,575,573,572,570,567,569,570,571,570,567,571,570,577,574,570,571,575,571,567,570,571,572,574,575,572,573,576,570,577,579,580,579,581,574,575,581,579,578,581,585,576,578,576,573,575,572,577,583,580,586,591,588,592,591,613,32001,32001,1135,1176,1185,1176,1180,32001,751,717,706,702,696,690,687,684,684,687,684,678,674,679,678,676,680,682,681,682,655,692,32001,32001,32001,32001,32001,32001,32001,32001,32001,32001,32001
32001,32001,32001,643,623,611,608,618,615,621,618,605,610,615,616,602,608,599,592,594,587,587,589,587,588,586,583,588,586,589,592,593,591,592,598,597,597,594,594,595,599,596,596,597,597,593,594,598,592,593,595,596,591,588,587,587,585,587,593,592,586,584,583,584,585,596,595,602,592,592,589,594,592,590,595,591,586,586,580,581,582,586,583,578,582,585,582,575,576,580,577,576,570,568,566,566,564,560,563,560,560,558,557,554,555,559,560,558,558,559,554,559,560,562,563,565,568,561,562,563,566,562,572,568,568,569,570,577,575,581,577,572,579,578,578,580,582,577,578,578,579,572,580,580,575,581,584,579,580,575,576,571,576,578,578,576,577,572,570,573,574,581,580,579,573,573,578,575,574,579,577,578,584,587,591,588,581,584,585,582,583,584,580,577,580,578,575,576,569,560,559,559,556,556,560,556,558,565,568,567,565,565,563,564,564,564,568,564,563,565,563,564,567,560,561,567,563,561,566,566,565,568,567,567,575,569,568,566,569,568,571,568,567,566,567,571,576,572,570,570,573,571,566,572,571,567,570,572,571,570,575,571,575,578,577,577,577,574,572,579,574,576,580,585,582,580,577,571,571,570,574,583,577,583,590,584,590,587,596,32001,32001,32001,1167,1184,1195,1172,1159,32001,32001,732,709,698,694,691,685,688,687,682,679,675,676,681,676,677,687,690,32001,32001,32001,32001,32001,32001,32001,32001,32001,32001,32001,32001,32001,32001
32001,32001,32001,610,598,605,591,32001,612,617,612,606,614,617,606,602,594,591,596,589,586,589,588,589,590,588,590,586,587,585,588,590,589,592,594,590,590,589,588,590,594,591,590,593,588,587,592,592,590,591,588,591,588,586,586,583,582,586,590,590,587,579,579,583,581,592,593,593,585,587,584,590,587,585,592,587,583,583,576,579,580,579,576,573,576,577,579,574,570,578,573,573,568,564,562,562,562,557,559,558,559,556,560,552,557,560,559,555,555,553,554,558,557,560,560,563,564,561,561,564,564,562,570,566,566,568,567,577,570,576,571,567,576,574,573,575,578,573,571,577,575,568,579,574,574,573,581,573,574,571,574,567,572,571,571,571,574,568,569,571,575,576,574,575,571,572,577,575,572,576,577,573,582,584,585,580,577,578,583,580,578,578,576,574,576,577,572,572,564,557,556,554,551,553,556,554,557,565,565,564,562,561,560,562,561,558,563,559,560,562,562,563,565,560,561,566,562,560,564,564,560,562,563,562,571,565,562,562,565,567,566,563,564,562,563,563,569,563,565,563,567,565,561,568,566,565,564,563,567,566,568,565,571,572,570,573,572,573,570,575,569,570,573,579,578,576,574,574,571,568,570,579,576,578,584,581,583,582,588,606,32001,32001,1154,1199,1226,1210,1200,1177,32001,32001,756,717,707,699,691,687,683,684,677,675,675,678,683,683,696,683,32001,32001,32001,32001,32001,32001,32001,32001,32001,32001,32001,32001,32001,32001
32001,32001,32001,603,600,32001,32001,32001,32001,32001,32001,611,609,608,587,595,591,589,585,585,584,585,587,582,585,584,585,584,581,584,586,588,589,589,589,591,590,591,582,586,587,583,584,594,585,590,589,589,589,587,584,589,584,587,588,580,579,579,581,580,579,574,571,573,575,582,587,587,582,580,579,583,578,579,580,579,578,574,570,573,573,577,576,570,570,572,570,568,566,570,570,565,561,560,559,561,560,558,559,553,557,560,557,549,551,554,554,551,552,550,548,555,554,560,557,561,562,561,564,562,562,560,566,562,561,565,562,569,567,573,570,564,574,568,569,570,573,566,566,571,573,564,572,569,571,573,578,570,570,567,571,567,570,567,568,568,571,567,568,571,571,572,565,570,570,571,570,570,569,569,574,571,579,583,584,581,574,576,577,581,578,575,570,570,571,573,571,568,564,555,556,554,551,550,557,556,556,561,562,562,557,557,558,561,563,558,562,559,558,560,559,559,558,557,559,559,559,558,562,560,558,560,561,561,572,559,559,558,562,561,563,563,561,562,562,561,567,564,565,560,564,562,561,563,564,561,561,558,563,564,565,563,566,568,569,568,568,572,569,573,567,568,570,572,573,573,573,571,569,567,570,575,570,574,582,572,575,579,579,595,32001,32001,32001,1188,1202,1199,1212,1187,1153,32001,32001,32001,751,712,696,694,689,686,683,684,685,687,694,707,32001,32001,32001,32001,32001,32001,32001,32001,32001,32001,32001,32001,32001,1108,1087,32001
32001,32001,32001,32001,32001,32001,32001,32001,32001,32001,32001,32001,32001,584,590,587,592,589,580,579,580,584,583,577,579,581,582,582,582,580,582,587,589,594,587,588,587,589,585,584,582,585,586,591,585,583,592,588,590,585,581,583,580,587,580,576,576,575,581,576,575,572,570,576,575,582,583,579,578,577,576,575,572,573,576,577,575,568,567,569,571,571,572,565,568,567,565,564,561,563,566,562,558,558,557,555,555,554,552,549,551,553,552,548,548,552,554,552,552,549,547,556,551,559,556,559,562,561,560,560,560,559,562,558,556,557,562,566,564,569,566,562,569,567,563,565,568,562,563,569,573,564,569,568,570,570,577,566,567,565,570,563,562,561,564,562,564,558,563,565,565,567,562,570,569,566,566,567,565,567,572,568,574,580,575,578,573,572,576,576,571,571,567,565,569,573,566,563,555,551,553,549,547,547,556,554,554,556,558,558,556,554,551,555,560,554,556,553,552,552,555,556,558,554,556,557,556,556,558,559,554,555,557,555,564,556,559,554,558,559,564,562,561,563,559,558,563,561,562,559,563,559,559,559,562,561,559,555,560,561,564,562,565,568,566,564,564,572,567,570,565,566,566,566,573,570,571,572,567,565,565,578,567,576,576,568,571,575,574,589,603,32001,32001,1164,1198,1207,1226,1222,1192,1192,1196,32001,32001,32001,729,714,693,696,687,683,679,677,32001,32001,32001,32001,32001,32001,32001,32001,32001,32001,32001,32001,32001,32001,1109,1107,1098,32001
32001,32001,32001,32001,32001,32001,32001,32001,32001,32001,32001,622,32001,586,580,578,579,575,571,576,577,579,576,572,573,574,576,578,576,575,574,579,585,590,587,588,586,585,578,580,576,578,580,588,578,587,589,581,580,577,576,575,578,583,583,577,574,569,570,567,566,565,568,572,574,578,580,575,570,567,567,570,565,568,571,573,572,567,565,568,568,566,568,563,564,563,562,562,562,565,565,560,553,555,553,553,551,550,549,547,552,551,550,542,547,548,551,549,550,548,547,554,551,556,556,558,559,561,559,558,557,556,560,560,558,560,560,563,561,570,564,561,567,563,563,561,563,560,559,562,571,562,564,566,569,567,571,562,564,562,565,559,557,559,561,557,558,558,562,562,563,564,559,566,566,565,564,567,560,560,565,566,569,575,570,573,569,567,570,570,570,572,566,563,563,568,561,560,556,546,547,545,544,545,554,553,551,554,555,555,556,554,550,558,562,553,554,555,554,553,556,552,553,550,550,553,553,558,555,557,554,555,553,555,559,554,557,551,557,556,558,561,555,558,556,554,557,558,555,555,557,557,554,554,560,559,556,553,558,563,563,560,562,565,565,561,561,568,568,569,562,564,564,564,570,571,570,569,565,559,560,573,565,568,570,562,566,573,566,580,580,32001,32001,1154,1201,1217,1224,1224,1206,1207,1212,1213,1185,1193,32001,32001,32001,32001,689,711,32001,32001,32001,32001,32001,32001,32001,32001,32001,32001,32001,32001,32001,32001,32001,1132,1104,1119,1110,32001
32001,32001,32001,616,630,32001,32001,32001,32001,32001,32001,581,564,573,570,569,572,574,573,575,570,575,578,574,571,573,574,574,572,571,571,578,584,585,582,579,575,578,573,580,573,579,579,584,578,582,584,577,577,574,570,570,570,573,575,574,568,565,570,564,564,563,566,568,566,573,576,571,569,563,562,566,562,563,565,568,568,564,565,566,561,562,563,556,560,557,560,558,557,559,557,551,549,551,550,549,549,550,548,545,551,546,547,544,547,548,547,545,549,546,546,550,547,551,551,555,554,557,558,557,555,552,555,556,554,558,558,559,558,565,563,560,566,560,560,556,559,555,557,558,566,559,562,563,565,562,566,560,561,559,556,552,552,556,555,554,553,556,560,558,562,564,559,562,561,561,558,563,557,561,561,565,566,565,563,564,565,564,570,567,567,566,562,561,560,561,556,556,552,545,547,545,542,545,553,552,549,551,550,551,554,550,549,555,556,547,549,547,547,550,553,547,548,546,546,550,550,555,555,554,551,551,548,551,556,553,553,549,555,554,556,557,555,553,555,554,554,555,555,556,558,554,555,554,561,560,557,555,558,561,564,561,561,564,564,559,558,565,566,565,562,563,560,562,568,569,569,564,559,556,557,572,561,562,566,560,567,574,568,573,567,586,32001,32001,1174,1217,1236,1240,1227,1230,1221,1232,1207,1210,1226,1218,32001,32001,32001,32001,32001,32001,32001,32001,32001,32001,32001,32001,32001,32001,32001,32001,32001,32001,32001,1143,1106,1100,1093,32001
32001,32001,32001,32001,32001,32001,32001,32001,651,32001,32001,32001,580,575,570,569,568,569,568,570,572,575,575,573,573,570,569,569,568,570,569,575,578,581,577,577,571,577,574,578,572,571,570,573,570,574,580,571,569,565,563,567,574,574,576,572,565,559,564,562,561,560,562,564,565,568,571,567,564,561,556,559,556,558,559,562,566,560,562,563,558,560,559,554,556,553,557,555,551,551,554,546,548,549,548,548,545,547,544,542,548,543,540,539,542,544,544,543,545,542,543,547,546,550,551,553,552,556,555,555,554,551,551,553,555,555,554,553,553,559,558,555,560,556,559,553,555,553,555,558,561,557,558,559,561,556,560,554,555,554,553,549,547,550,552,550,550,553,563,558,563,560,554,561,558,556,557,560,553,561,562,566,562,562,560,562,564,563,567,563,565,564,562,558,556,556,553,555,549,542,541,543,542,543,550,551,548,549,547,546,551,548,545,550,548,541,542,544,543,547,550,542,548,542,541,546,545,550,548,549,547,547,548,550,552,550,549,548,554,548,552,555,554,552,554,552,550,552,553,555,553,552,550,548,555,553,553,552,553,557,557,555,556,556,556,556,555,563,561,559,558,558,555,556,562,564,567,559,557,556,557,569,563,561,564,560,563,569,563,567,565,577,32001,32001,32001,1212,1233,1248,1243,1238,1241,1247,1259,1228,1258,1245,1246,1243,32001,32001,32001,32001,32001,32001,32001,32001,32001,32001,32001,32001,32001,32001,32001,32001,32001,32001,32001,32001,32001,32001
32001,32001,32001,32001,32001,32001,32001,32001,32001,32001,32001,32001,32001,565,564,570,568,568,567,573,572,570,569,563,566,564,562,567,569,572,570,574,577,577,577,574,571,574,577,578,569,567,569,568,571,573,576,568,565,561,561,566,569,572,570,562,563,557,559,559,556,558,558,561,560,562,561,556,558,556,553,555,551,553,552,554,557,555,556,557,556,558,558,553,554,552,554,553,548,548,547,543,545,544,545,546,543,544,541,540,546,540,540,539,541,539,533,534,539,536,539,543,542,545,547,550,549,553,554,553,550,546,548,550,552,554,553,554,550,555,556,552,561,551,555,550,551,549,553,554,558,554,554,557,558,551,554,552,551,550,554,548,546,549,551,548,549,551,560,554,559,554,551,561,558,557,554,559,553,560,557,563,561,560,560,560,560,558,561,559,561,558,556,554,553,554,551,551,547,541,539,541,541,543,546,544,547,545,546,547,550,546,544,545,542,540,541,542,542,544,547,539,545,542,540,547,544,549,546,548,543,546,545,549,547,545,547,548,550,546,548,551,553,550,549,548,547,551,550,549,550,545,546,545,552,552,554,550,549,553,554,551,550,554,552,551,550,555,557,555,554,555,554,554,556,559,563,558,558,557,558,564,561,557,557,558,557,563,558,564,564,567,596,32001,32001,1192,1231,1258,1244,1240,1247,1256,1274,1240,1236,1244,1237,1251,1252,32001,32001,32001,32001,32001,32001,32001,32001,32001,32001,32001,32001,32001,32001,32001,32001,32001,32001,32001,32001,32001
32001,32001,32001,32001,32001,32001,32001,32001,32001,32001,32001,568,567,567,564,569,568,569,566,570,567,567,565,561,562,562,564,565,565,567,568,573,570,572,570,572,573,576,572,569,564,564,570,570,569,568,567,563,563,557,559,563,566,567,560,553,553,552,555,555,554,555,551,554,553,552,554,550,556,554,546,546,547,546,546,549,555,552,553,550,551,556,552,548,549,548,547,547,545,544,545,540,541,542,543,545,544,541,538,536,543,535,537,534,536,535,531,534,536,533,538,538,538,542,544,550,548,551,551,547,546,541,543,544,549,548,548,548,549,552,550,548,553,552,552,548,547,549,551,551,554,552,552,553,555,549,552,549,546,548,550,548,548,549,550,546,547,543,553,549,556,551,548,556,552,553,552,558,553,561,556,560,556,554,554,556,556,558,558,557,556,554,554,551,551,552,549,552,546,539,535,536,536,536,545,540,540,540,541,544,545,542,540,542,538,537,537,542,541,539,543,536,543,541,537,541,540,544,539,543,543,545,541,542,544,542,545,545,547,543,549,548,550,550,548,549,549,548,547,551,550,550,550,548,549,551,553,549,546,555,553,551,549,555,552,553,549,551,553,551,548,552,551,551,554,557,563,557,557,557,557,558,559,554,556,555,555,557,555,558,562,559,576,614,32001,32001,1216,1245,1249,1234,1266,1265,1270,1261,1267,1240,1247,1250,1248,32001,32001,32001,32001,32001,32001,32001,32001,32001,32001,32001,32001,32001,32001,32001,32001,32001,32001,32001,32001,32001
32001,32001,32001,32001,32001,32001,32001,32001,32001,32001,32001,559,563,561,565,567,566,566,563,568,563,562,562,560,558,559,558,564,562,563,566,572,568,563,563,562,566,570,567,566,564,560,569,572,570,562,562,557,554,553,556,562,556,557,558,553,548,548,550,549,551,552,547,549,547,548,550,546,549,544,539,543,545,541,543,545,545,544,544,541,547,551,547,543,547,547,545,544,542,542,537,536,535,539,543,540,539,535,532,529,534,531,535,535,535,531,528,533,536,532,535,535,538,541,547,549,547,548,547,546,546,542,543,542,544,545,548,544,545,548,546,545,548,547,552,546,545,546,546,547,550,549,552,554,556,549,549,548,541,543,545,546,544,546,547,544,545,544,551,543,551,548,547,551,549,548,548,554,549,557,550,556,550,549,550,553,551,556,553,551,553,555,550,546,548,549,546,544,543,536,532,533,534,535,542,538,538,537,535,539,540,540,538,538,535,536,536,539,538,539,540,535,541,538,534,536,537,541,536,540,538,540,537,536,539,537,541,540,541,539,543,542,543,545,544,543,545,545,544,549,551,544,541,542,544,548,551,544,545,548,550,549,544,548,546,545,546,547,549,549,547,549,547,548,552,553,556,555,554,559,556,555,556,550,550,550,550,551,552,554,556,554,562,588,32001,32001,32001,1256,1253,1242,1262,1261,1269,1229,1236,1247,1249,1253,1238,32001,32001,32001,32001,32001,32001,32001,32001,32001,32001,32001,32001,32001,32001,32001,32001,32001,32001,32001,32001,32001
32001,32001,32001,32001,32001,32001,32001,32001,32001,32001,32001,554,558,564,565,567,564,560,560,560,555,554,553,556,555,557,556,560,559,557,559,566,568,563,563,560,560,560,559,556,555,558,560,563,561,558,558,554,555,552,556,555,551,553,550,549,546,547,549,546,551,551,546,547,543,544,547,543,545,541,538,537,542,540,540,543,547,547,544,538,543,544,542,540,542,543,537,539,535,539,534,532,533,536,538,536,538,530,529,529,533,528,535,534,534,530,527,531,534,531,533,534,537,542,544,545,545,543,542,542,541,540,539,539,541,542,543,539,539,544,544,543,543,541,544,541,544,542,541,544,550,547,550,550,549,547,544,542,537,539,542,542,542,541,545,541,539,540,545,540,547,547,546,551,546,544,545,550,549,555,550,552,546,546,546,547,549,552,547,548,548,550,549,546,547,548,545,541,540,536,530,530,530,531,533,534,534,531,532,531,534,533,533,535,531,536,534,536,536,537,541,535,537,536,533,535,535,537,535,538,537,538,536,535,538,536,538,538,538,538,540,539,540,543,543,545,544,542,539,544,549,546,541,542,542,546,550,546,546,548,549,547,542,543,542,543,544,545,546,545,544,547,545,548,551,554,555,555,553,555,551,551,550,547,550,548,549,548,548,550,553,555,556,576,32001,32001,32001,1219,1233,1232,1253,1253,1240,1238,1251,1227,1206,1210,1225,32001,32001,32001,32001,32001,32001,32001,32001,32001,32001,32001,32001,32001,32001,32001,32001,32001,32001,32001,32001,32001
32001,32001,32001,32001,32001,32001,32001,32001,32001,32001,32001,559,560,553,566,560,561,558,558,559,553,552,550,555,554,552,555,556,555,554,556,561,563,563,556,555,559,561,559,558,561,557,557,557,554,548,551,552,553,550,554,556,547,547,548,549,541,540,543,545,548,547,543,546,543,544,547,542,541,539,535,535,541,541,539,541,544,542,539,534,537,538,538,534,536,537,536,536,531,534,531,526,528,530,533,530,533,530,526,525,528,526,530,530,532,530,525,530,531,528,529,530,536,537,538,538,543,543,543,543,539,536,538,536,537,538,537,537,536,542,537,536,537,532,539,535,541,540,537,540,540,542,545,546,545,545,541,536,534,534,540,541,540,538,542,537,537,535,543,539,545,541,542,548,545,541,544,548,548,550,546,551,545,546,546,544,545,549,543,545,546,548,546,544,542,542,541,539,539,532,528,527,528,531,530,531,532,530,532,529,531,530,527,530,527,528,527,531,531,533,538,531,531,532,532,530,534,536,533,532,532,535,534,533,536,534,533,534,534,533,536,533,536,538,540,541,537,536,536,543,545,543,538,537,538,541,545,543,546,545,546,544,540,540,538,540,540,539,542,543,541,548,543,547,548,549,549,551,548,553,549,549,545,546,544,547,547,548,547,548,552,551,548,563,582,32001,32001,32001,1212,1228,1225,1238,1223,1237,1240,1216,32001,1232,1248,32001,32001,32001,32001,32001,32001,32001,32001,32001,32001,32001,32001,32001,32001,32001,32001,32001,32001,32001,32001,32001
