32001,853,851,847,840,836,835,851,840,841,833,829,823,824,822,831,825,821,825,834,839,831,830,819,817,818,821,823,821,829,830,828,825,823,827,825,829,835,822,823,823,818,820,824,821,822,824,824,819,825,823,822,816,815,817,821,821,822,824,820,822,818,822,821,819,820,816,821,821,819,819,822,824,820,820,820,820,824,821,823,825,819,824,823,825,825,820,819,824,825,827,828,823,823,820,823,818,825,826,822,825,824,820,825,821,822,824,825,825,826,824,823,824,820,821,823,824,822,824,826,823,823,825,823,823,822,823,827,824,827,828,825,824,822,825,824,824,825,827,824,830,827,823,824,827,828,829,825,827,821,823,828,829,826,830,827,831,829,830,833,833,833,832,828,828,830,832,832,834,835,829,832,830,832,832,831,836,837,834,833,834,836,833,834,835,836,835,836,837,840,839,840,837,837,835,834,836,839,836,836,837,835,839,837,832,838,840,836,837,838,837,837,839,839,840,839,836,836,837,836,838,839,838,839,838,841,836,837,839,838,836,836,833,835,833,834,838,837,835,834,834,837,835,836,835,832,833,829,829,834,831,830,831,834,831,827,829,827,826,823,826,829,828,827,825,825,829,827,825,827,826,822,822,821,821,822,822,821,821,826,833,831,825,827,823,828,824,823,819,825,822,820,826,822,826,822,822,828,834,830,823,825,828,822,824,823,832,832,843,840,837,838,816,827,835,835,820,826,829,32001
32001,834,830,846,835,831,821,813,836,839,836,824,822,821,819,827,820,822,833,32001,838,832,827,822,819,817,824,830,835,835,833,830,823,827,822,819,817,824,830,821,826,820,822,822,826,818,821,826,819,818,819,816,815,813,816,816,818,822,819,820,818,815,816,816,817,822,823,820,820,825,821,823,819,818,816,822,821,822,820,820,818,818,821,825,825,823,821,819,823,826,824,829,825,822,822,820,823,823,822,822,822,825,822,823,820,825,824,822,824,827,819,819,822,819,823,824,822,824,827,829,828,824,826,822,823,823,822,827,823,826,827,824,825,822,826,824,826,824,827,824,824,822,823,826,825,826,824,825,826,822,827,829,827,826,832,828,833,829,833,832,834,831,832,830,830,833,831,833,836,834,832,835,833,836,837,833,840,841,836,835,835,837,837,835,835,836,836,838,838,843,841,842,839,837,836,836,838,842,840,838,838,838,837,839,834,838,839,840,839,838,838,837,840,838,841,839,840,838,841,842,840,841,840,839,839,841,837,836,839,838,838,836,836,838,835,834,839,838,834,836,836,838,833,833,834,833,833,830,829,837,835,829,832,833,833,828,829,828,830,825,823,827,828,825,824,827,831,827,824,823,826,822,824,823,822,825,824,825,822,824,823,831,823,827,826,828,829,825,827,829,829,825,830,826,828,820,822,825,837,829,828,828,825,829,824,823,827,825,846,830,833,828,814,820,824,829,814,830,825,32001
32001,839,845,845,859,843,831,834,847,833,835,829,826,824,821,822,824,827,841,850,838,830,824,821,821,820,826,830,830,823,828,832,822,828,826,822,820,829,831,823,817,817,822,820,822,819,822,825,816,820,823,818,820,814,817,820,823,819,823,823,824,816,820,822,817,819,820,820,817,822,824,823,821,819,816,817,822,819,820,821,820,815,822,821,823,818,817,814,817,820,824,822,824,823,818,819,822,825,827,821,819,822,822,823,815,819,822,824,822,822,821,820,819,818,821,823,823,822,824,823,826,823,828,823,824,820,819,823,822,829,825,823,825,820,826,827,828,824,825,823,827,824,823,825,826,826,824,824,827,822,826,827,828,827,830,827,832,829,831,831,834,831,829,829,833,832,832,833,834,836,833,835,834,839,838,833,839,838,837,836,835,836,833,836,836,839,835,841,841,842,841,840,838,838,837,835,835,841,842,842,842,839,834,837,836,839,841,839,839,839,841,839,843,839,842,841,838,839,841,840,840,838,838,837,841,840,836,838,840,844,842,837,838,838,835,835,835,836,835,835,835,836,837,836,837,837,833,830,830,836,833,829,832,832,831,828,829,829,831,828,829,829,830,826,823,821,829,828,824,824,826,821,822,822,823,825,821,822,822,823,823,825,821,821,826,835,831,825,823,826,824,825,833,825,832,820,825,825,825,828,824,829,832,824,829,832,829,829,837,839,835,853,829,826,825,835,814,823,825,32001
32001,851,840,835,849,848,843,831,830,819,825,823,814,822,822,821,824,825,828,852,841,839,823,821,824,820,828,827,826,824,825,829,820,823,815,819,821,827,830,820,822,823,824,819,816,817,819,823,816,820,829,826,821,813,814,820,820,817,815,816,818,815,818,818,813,817,817,820,817,822,819,822,821,819,818,821,822,816,818,823,823,822,826,829,826,822,820,816,816,819,821,822,823,822,819,818,819,824,822,821,820,820,820,821,818,825,820,820,822,819,818,818,822,820,823,821,821,824,822,822,824,820,827,821,822,823,818,824,822,820,825,822,826,820,824,822,824,823,825,824,828,820,821,823,826,826,824,824,825,821,828,826,826,826,831,825,832,830,833,830,834,833,831,833,834,831,833,837,833,833,834,832,833,839,838,833,838,836,835,837,836,837,837,835,837,840,835,840,840,842,842,839,839,837,836,835,835,838,839,837,836,839,835,840,836,836,839,837,838,838,841,837,840,839,840,843,837,839,842,837,838,839,839,837,841,841,838,839,839,841,838,836,837,838,837,839,836,838,839,838,836,835,833,836,835,833,831,830,831,837,833,829,831,830,830,828,824,826,826,828,825,828,826,825,825,822,827,828,825,823,829,822,828,826,823,824,825,823,824,824,826,826,817,815,824,831,827,832,826,825,823,826,829,826,829,828,827,824,823,827,826,825,824,820,822,826,830,829,833,846,858,841,822,828,825,820,818,817,816,32001
32001,864,842,837,831,842,827,822,826,819,823,823,814,816,816,822,825,823,845,859,842,828,827,816,817,820,817,821,816,815,819,823,822,826,823,818,819,824,820,819,823,823,817,817,817,817,818,823,821,816,828,827,823,818,819,827,819,816,815,816,817,816,819,822,814,814,820,819,818,823,820,819,822,819,818,820,820,818,819,815,817,818,821,820,821,821,819,818,821,820,822,817,821,823,821,819,818,823,821,820,821,821,818,820,815,826,825,822,824,820,821,822,821,820,823,821,823,823,822,825,830,822,826,820,821,826,823,828,826,824,827,826,828,820,825,820,827,823,823,824,827,824,821,823,822,822,822,825,826,823,829,826,828,823,827,824,830,831,830,829,830,834,828,831,833,833,832,838,835,834,833,833,834,838,836,833,839,839,838,837,837,835,837,838,840,840,834,838,838,843,841,839,837,836,838,834,836,841,840,838,836,838,834,839,836,837,840,838,838,841,843,838,839,836,838,839,839,839,841,838,838,839,841,840,840,842,838,841,844,840,839,839,838,840,838,841,839,841,836,836,836,838,836,839,834,832,830,830,829,837,831,828,833,830,835,830,824,827,837,828,825,831,824,825,826,827,830,832,827,822,825,821,824,821,819,821,818,821,821,841,827,828,821,817,823,830,826,824,820,822,824,823,825,824,826,827,823,822,826,828,827,817,815,820,826,828,824,821,828,840,847,831,829,824,830,825,827,820,816,32001
32001,830,827,853,847,847,827,813,821,816,824,822,819,819,813,808,819,821,825,838,840,833,826,821,823,815,812,816,812,812,812,821,815,820,819,814,822,826,825,822,818,816,819,815,814,818,815,823,821,816,825,817,818,823,821,820,819,815,813,811,815,815,817,823,817,818,816,816,816,830,821,818,822,818,815,817,819,817,817,818,817,818,820,819,822,816,817,818,820,815,820,814,819,819,817,819,816,822,818,819,820,821,822,824,818,823,820,819,819,820,821,824,820,818,821,817,821,823,820,820,827,818,820,816,819,823,824,828,821,822,824,819,823,818,825,820,827,820,821,818,822,825,825,825,823,822,819,827,828,823,824,823,827,825,828,827,830,827,828,830,829,831,829,828,831,834,833,835,834,832,832,831,833,837,832,833,836,839,838,838,836,836,837,836,837,838,830,838,839,843,840,840,836,840,836,832,835,840,837,838,837,839,833,837,833,835,840,839,838,843,841,838,839,837,836,837,837,838,839,836,837,838,840,839,839,839,838,838,838,838,839,836,837,839,837,838,838,838,836,833,834,834,833,835,834,832,831,833,831,830,830,829,831,832,829,830,826,824,828,824,824,829,821,821,825,825,826,821,821,822,825,822,825,819,820,822,821,826,830,829,815,796,796,805,815,824,824,824,825,827,824,824,824,826,835,823,820,819,831,826,832,828,821,815,818,822,821,813,822,832,829,826,825,828,828,826,840,821,825,32001
32001,840,823,834,841,834,828,815,831,821,838,833,824,822,823,836,833,821,820,32001,839,828,821,821,821,818,817,815,811,813,816,817,813,818,820,823,825,824,822,821,816,819,818,820,820,817,819,823,820,812,816,814,815,819,817,815,816,814,818,817,818,816,817,820,811,814,821,819,821,826,818,816,818,817,816,815,820,822,817,815,817,818,822,814,817,816,818,820,819,817,820,816,820,816,818,820,818,821,817,815,819,822,822,821,819,822,819,824,824,822,823,822,823,820,823,819,819,824,820,819,820,816,820,818,818,824,820,821,818,820,820,818,821,820,821,820,824,822,820,820,822,824,823,822,826,823,822,826,828,825,826,822,830,828,830,827,833,827,834,830,830,835,835,831,832,834,831,832,834,834,835,835,832,834,833,833,836,838,838,839,840,836,838,838,839,839,836,837,836,844,841,837,833,836,833,829,834,835,836,836,835,839,835,839,838,836,844,838,836,839,841,841,839,837,839,840,839,838,841,837,836,836,839,839,839,839,835,835,837,834,835,834,835,839,836,835,834,837,836,836,833,838,833,833,832,831,830,834,832,831,832,828,828,829,833,830,828,832,830,828,825,829,827,820,824,824,825,827,831,827,831,821,825,823,826,822,822,822,828,815,785,780,806,810,813,818,822,826,827,831,825,825,828,826,835,828,824,819,828,822,825,823,824,819,819,820,821,822,819,821,837,827,825,830,832,819,834,817,827,32001
32001,822,819,809,32001,828,816,809,829,820,820,830,828,823,821,833,827,824,820,863,837,822,822,819,824,815,814,815,812,812,810,812,814,814,814,818,824,827,823,822,814,816,810,817,821,819,814,820,816,808,818,811,816,820,814,816,816,818,816,819,818,814,817,818,814,818,822,824,826,831,822,818,821,818,816,817,816,821,816,817,818,819,819,814,818,817,819,819,815,818,819,816,821,818,822,821,821,825,818,816,820,819,824,821,816,823,821,822,823,817,819,821,821,817,821,819,819,820,816,819,818,816,819,817,820,821,820,823,819,822,817,816,820,821,826,817,820,821,821,822,821,821,820,821,822,820,820,825,827,821,825,821,831,826,830,827,833,831,836,831,828,833,830,832,834,834,830,829,833,831,833,831,829,834,831,833,833,836,839,839,837,833,837,837,838,836,833,836,833,837,837,836,835,840,837,833,835,837,837,837,835,837,835,841,840,835,840,837,833,839,841,840,839,839,841,841,842,837,839,836,837,837,838,838,840,839,835,837,840,838,838,836,838,840,836,836,836,837,837,833,833,836,834,833,834,831,831,835,830,831,830,830,828,830,831,827,830,832,828,827,824,827,825,823,822,823,824,824,825,824,825,820,823,821,827,824,824,828,833,817,773,721,760,789,804,820,826,829,827,822,818,821,823,831,829,824,823,817,821,824,825,823,826,825,827,831,833,837,833,840,829,838,819,817,825,819,827,811,808,32001
32001,32001,32001,816,798,805,806,802,822,822,815,821,823,822,826,830,821,822,823,839,819,820,814,813,814,818,819,822,825,815,816,819,815,816,813,811,814,815,814,822,814,812,810,812,817,812,820,824,815,809,810,806,814,810,810,808,812,817,817,819,818,817,822,822,812,813,815,818,817,820,817,815,816,817,817,814,817,817,813,820,818,817,819,816,819,818,822,821,816,818,820,820,820,818,820,821,820,819,818,816,820,821,821,822,816,822,818,819,820,818,824,822,818,819,818,817,817,819,819,815,818,815,815,815,817,821,818,819,817,819,815,816,817,819,821,817,820,821,818,820,819,819,819,824,820,820,819,829,824,821,825,821,826,824,824,823,829,827,830,828,828,832,829,831,833,833,830,831,836,835,833,832,832,834,829,831,832,832,837,834,834,834,836,835,838,838,833,833,833,839,836,837,837,841,839,835,834,835,835,839,837,835,837,839,838,834,839,837,834,837,840,842,841,838,839,839,838,838,838,836,838,834,836,837,838,834,836,837,839,837,838,832,835,838,836,834,836,837,833,831,833,836,835,832,835,831,831,832,829,828,829,832,829,833,833,829,828,829,833,830,827,831,824,823,825,827,823,822,823,823,827,821,824,821,826,828,825,829,823,814,772,717,756,785,801,818,821,827,824,827,823,821,823,833,821,825,819,821,822,825,825,816,823,819,822,828,828,836,839,833,827,828,822,828,822,826,824,816,811,32001
32001,32001,32001,809,797,800,800,802,809,811,817,819,813,813,819,824,821,826,816,852,837,828,821,814,822,823,823,820,818,814,818,817,812,810,809,809,816,818,815,812,810,814,815,811,813,811,817,823,812,810,814,808,811,812,815,807,806,814,808,818,822,814,825,823,817,816,812,813,814,817,815,818,821,817,815,814,817,817,816,819,814,816,817,818,819,813,817,817,814,814,817,821,817,817,819,819,819,819,817,819,819,820,818,820,820,818,817,816,818,817,819,819,815,819,817,816,817,820,815,818,818,816,817,818,818,818,815,816,814,819,817,818,818,816,823,817,818,820,818,821,819,820,816,820,820,821,823,826,827,824,824,820,827,824,826,823,828,825,832,828,829,830,827,832,829,830,829,832,833,832,831,829,830,830,827,830,831,832,835,834,833,831,835,835,835,838,835,835,833,839,832,838,836,836,841,835,836,841,838,838,838,836,836,837,836,834,834,837,834,835,841,840,839,837,840,838,840,838,838,837,837,832,837,837,840,838,835,836,837,836,837,833,835,839,834,834,833,834,834,833,835,835,833,832,833,829,832,832,827,827,830,831,832,832,830,829,829,825,827,825,821,828,824,823,823,824,822,820,821,822,826,822,823,824,825,825,825,824,825,814,780,718,747,780,800,813,817,820,824,827,823,826,820,825,823,822,824,822,823,825,827,822,821,816,820,828,820,827,835,829,829,825,819,818,835,827,833,832,824,32001
32001,848,806,812,806,804,799,808,813,815,814,815,819,819,823,829,817,818,818,841,836,836,818,815,822,818,821,818,813,815,814,814,814,809,813,806,811,809,809,814,811,816,814,815,813,812,812,817,813,815,817,810,813,814,816,811,809,813,810,807,809,806,814,821,819,820,814,815,815,816,820,818,823,819,817,814,813,816,816,820,815,814,816,816,819,815,819,816,811,815,813,817,814,816,817,819,813,811,815,813,819,821,818,819,819,815,817,818,817,814,817,819,816,819,815,819,818,819,816,816,811,816,815,816,816,816,816,818,815,818,819,814,816,814,819,815,816,818,817,822,820,821,817,819,824,825,823,824,824,825,827,821,826,824,826,828,829,827,831,829,832,830,829,830,829,831,831,832,831,835,830,829,833,831,829,835,836,832,835,834,833,833,838,837,833,834,834,837,831,837,832,836,835,837,840,835,833,835,835,834,839,834,836,831,837,834,836,838,835,834,838,840,841,840,844,836,840,837,835,838,840,836,835,835,837,836,836,834,834,834,836,838,840,837,834,834,834,835,836,832,835,834,834,832,832,829,831,833,828,827,828,830,833,830,832,829,829,829,830,829,826,827,821,825,826,825,824,824,825,825,826,822,820,821,821,822,820,822,830,813,788,732,734,784,795,812,817,825,825,825,822,822,816,816,816,819,819,820,825,832,820,813,818,820,818,819,818,827,827,829,827,823,825,813,820,829,830,827,819,32001
32001,868,850,828,812,795,795,809,812,815,816,819,819,817,819,823,816,819,818,835,835,826,818,814,823,815,817,813,816,815,816,815,812,810,810,808,809,811,811,810,809,811,810,813,815,811,811,817,813,807,812,807,812,811,817,807,811,817,812,810,810,809,810,815,813,815,807,812,812,810,814,816,819,815,815,815,814,815,813,818,818,819,818,816,818,813,817,813,810,813,813,818,813,816,814,814,815,811,816,814,815,817,815,814,815,812,814,815,819,815,819,816,813,817,813,818,818,816,813,812,811,814,816,815,814,817,817,817,815,821,820,818,819,818,819,815,817,819,813,822,819,820,818,823,822,823,820,824,824,823,823,819,828,824,825,827,828,826,832,827,828,827,823,826,828,829,827,828,834,835,830,831,834,833,829,832,834,832,834,833,832,834,836,836,834,835,834,836,832,833,833,834,838,839,841,835,836,835,833,831,835,831,836,831,838,833,834,835,835,834,836,839,838,838,839,837,842,839,835,835,835,834,836,835,837,838,836,834,832,831,837,838,839,835,833,837,834,833,836,832,832,832,831,831,831,830,832,832,829,828,829,831,830,829,827,830,830,831,830,830,824,828,826,830,826,824,821,819,820,820,821,820,822,822,818,819,818,818,823,817,792,733,716,766,793,804,816,820,822,828,821,823,823,820,819,825,819,818,822,827,820,815,819,818,824,827,827,831,836,831,831,822,819,813,827,831,832,831,830,32001
32001,32001,32001,797,811,802,800,815,819,816,821,819,816,813,817,821,815,820,819,848,843,832,818,816,823,814,814,818,820,817,816,817,811,810,815,812,816,812,810,817,816,819,814,812,810,815,813,815,808,806,808,807,811,812,810,806,805,807,807,807,808,807,810,816,812,819,814,811,812,810,815,816,818,815,814,812,811,814,811,813,813,816,815,815,818,811,815,810,814,817,814,817,812,817,817,815,817,816,816,814,814,818,816,814,815,815,814,813,818,813,820,815,813,817,816,820,817,818,817,815,817,815,819,815,817,816,819,817,816,818,819,817,819,820,818,815,819,821,815,821,821,822,819,817,816,821,818,825,826,825,823,822,826,823,826,827,826,827,831,826,828,827,825,825,828,826,827,829,831,833,829,830,832,833,829,830,836,833,835,835,832,831,837,833,830,837,833,837,833,836,836,836,836,841,841,837,838,834,833,831,837,832,836,833,835,833,835,836,836,834,836,841,837,837,839,834,839,837,837,834,835,833,834,832,837,838,835,836,834,834,837,840,842,833,829,833,834,835,835,832,832,831,830,831,832,830,829,829,831,830,828,829,829,829,825,826,829,829,828,832,829,826,823,822,821,820,820,819,820,820,827,822,821,820,818,821,818,815,820,810,789,761,713,750,789,803,815,819,818,825,819,820,820,818,821,826,821,817,824,823,815,818,820,820,817,820,833,832,841,830,832,815,826,815,823,821,820,823,822,32001
32001,786,776,779,32001,806,808,807,808,814,819,819,820,817,812,823,814,823,818,864,32001,828,822,813,815,817,817,814,821,814,815,819,810,809,809,808,809,807,808,807,810,811,816,813,815,809,813,813,810,806,810,805,810,809,814,814,812,811,801,808,809,826,817,813,808,813,806,809,819,815,818,815,817,816,813,814,812,813,815,814,816,812,813,818,822,817,817,812,810,816,811,816,815,822,818,817,815,813,815,813,813,814,812,813,817,813,813,812,814,811,819,815,814,815,816,816,817,823,818,817,817,815,816,814,813,815,816,816,819,818,820,815,817,818,819,817,817,820,815,817,821,823,821,816,819,821,817,822,823,823,821,821,829,829,828,826,827,824,829,828,830,830,828,828,830,830,829,826,831,829,828,829,831,832,829,828,833,836,835,836,833,832,834,829,828,836,832,835,833,833,837,836,835,835,838,835,835,836,832,832,837,832,834,833,834,830,834,834,833,831,834,841,837,837,837,833,838,835,837,834,835,834,835,834,837,838,834,832,833,833,837,840,838,834,831,833,834,832,833,830,833,832,834,835,834,832,829,828,827,830,826,826,829,826,826,828,828,827,829,831,828,826,823,823,823,823,821,822,823,821,825,820,819,823,818,819,821,820,825,817,795,774,713,741,781,802,812,819,818,820,817,818,817,818,819,819,821,821,822,823,817,814,819,819,809,818,825,820,826,828,824,816,816,816,814,820,840,828,824,32001
32001,802,785,791,791,791,790,32001,802,807,815,821,821,817,816,816,815,821,820,839,837,828,814,812,813,810,808,812,816,807,814,811,807,804,808,810,810,808,808,816,816,812,813,815,812,812,810,812,808,804,807,813,811,808,813,824,799,32001,32001,32001,798,813,814,811,806,811,810,811,815,815,816,814,816,814,813,812,814,817,814,812,812,812,812,815,820,813,816,813,815,815,812,814,812,814,814,820,820,815,814,816,815,813,810,812,816,812,814,815,812,810,812,810,811,814,817,817,815,817,816,817,815,816,817,815,815,818,817,815,818,814,818,812,817,819,818,816,818,821,817,820,821,818,818,817,820,824,821,824,822,828,826,821,831,826,825,823,825,822,827,826,829,828,826,827,828,828,828,828,830,826,827,827,827,832,830,832,836,834,834,835,832,829,833,830,828,835,832,831,832,832,837,837,835,831,839,835,833,834,833,832,834,833,835,834,835,831,834,834,835,832,838,842,836,837,834,834,837,833,835,835,838,838,834,835,836,837,837,835,834,831,835,836,835,833,831,831,831,832,835,829,834,832,831,834,834,831,827,826,829,830,826,826,828,828,827,829,830,826,826,826,826,823,820,820,819,820,821,820,822,818,824,820,823,824,818,820,825,819,820,820,797,775,716,738,777,802,807,808,814,821,815,823,817,821,819,817,816,814,821,817,814,812,818,821,816,818,820,816,825,823,824,813,815,815,810,815,826,822,838,32001
32001,778,794,794,808,798,795,799,802,809,817,823,818,815,816,816,815,824,815,834,845,837,815,810,808,807,809,813,814,812,816,817,808,809,811,813,807,816,810,811,817,812,808,807,803,808,805,804,805,800,806,807,811,805,817,32001,32001,32001,32001,32001,32001,32001,816,826,816,817,815,814,814,811,815,814,817,816,813,813,816,818,814,813,813,809,811,811,817,815,817,811,814,816,809,812,811,819,818,818,815,814,812,818,816,816,812,813,817,812,814,813,810,813,815,812,811,815,816,818,814,823,815,815,814,813,819,814,815,817,818,818,816,814,814,811,813,814,813,816,817,817,818,819,820,819,819,819,819,824,820,826,819,827,825,821,823,823,824,820,826,821,823,822,824,829,827,827,831,827,827,825,829,828,826,827,825,832,832,831,837,834,832,834,830,827,833,828,829,834,831,834,835,831,837,836,836,832,837,836,835,834,835,836,834,832,832,830,833,828,832,836,836,834,835,840,839,838,834,833,837,836,838,835,836,836,834,831,837,835,836,834,832,830,832,837,835,832,831,833,835,832,834,832,834,832,830,832,832,830,828,826,827,834,828,828,826,825,828,829,826,827,824,826,826,825,821,822,821,821,823,822,825,817,821,818,819,818,818,822,819,816,819,812,793,782,735,714,762,795,807,808,817,821,819,819,817,815,812,812,812,814,818,822,814,809,812,816,819,825,815,818,810,824,826,828,816,805,826,834,823,817,32001,32001
32001,32001,32001,32001,32001,789,792,790,795,798,800,808,813,816,811,810,812,819,813,830,32001,825,815,807,806,808,811,813,814,814,816,814,807,804,805,807,808,809,804,812,813,811,811,811,809,806,803,803,806,803,805,808,802,806,787,32001,32001,32001,32001,32001,32001,32001,32001,827,812,810,812,813,813,813,815,813,815,815,812,813,813,814,810,812,814,811,814,812,818,814,811,811,811,812,808,810,810,816,815,816,817,816,814,813,812,817,813,814,814,811,812,811,812,815,812,808,813,815,819,819,813,819,815,814,812,814,816,817,815,814,814,814,811,813,813,813,817,816,815,816,816,814,817,818,822,817,815,821,820,819,814,819,819,825,822,819,822,820,825,822,825,824,823,823,825,829,829,825,826,826,829,826,827,825,827,827,828,829,829,825,831,832,834,832,830,827,830,828,826,833,832,832,831,831,838,834,834,830,837,838,838,833,833,835,830,831,831,828,830,825,831,835,832,830,832,836,834,832,833,834,836,834,836,836,835,839,832,829,836,836,834,833,834,831,832,834,833,831,831,832,836,832,833,828,832,831,830,831,836,831,828,826,828,832,827,827,827,827,825,829,826,826,824,825,826,822,820,820,821,822,820,822,829,821,823,818,818,821,818,816,822,820,822,814,799,794,755,712,748,784,804,802,812,820,818,816,814,813,810,812,818,817,822,815,815,805,810,817,827,830,819,830,822,830,853,844,32001,32001,32001,32001,32001,32001,32001,32001
32001,32001,795,783,796,792,795,789,793,797,806,808,809,813,815,816,821,836,828,840,859,844,824,814,811,810,808,806,807,806,814,813,805,808,804,813,808,808,810,807,807,808,808,808,805,804,806,808,804,801,808,813,809,827,832,32001,32001,32001,32001,32001,32001,32001,32001,826,812,810,810,813,810,809,810,810,811,813,814,813,814,813,809,812,812,810,811,814,815,812,810,811,813,812,808,807,810,813,814,813,813,812,814,814,811,812,808,817,813,810,812,813,814,818,813,812,816,816,820,821,816,820,814,815,814,813,813,817,814,814,816,816,813,815,811,809,816,817,814,817,816,814,816,817,823,814,817,819,819,822,823,822,819,825,821,820,822,821,822,822,824,823,825,827,823,829,826,825,827,825,828,825,829,827,827,827,823,828,828,825,833,834,838,835,828,826,832,826,827,834,832,832,830,833,835,836,833,828,834,838,835,832,831,835,831,835,831,829,831,825,834,835,832,832,832,835,833,831,829,832,836,837,839,835,836,840,834,830,833,835,834,835,834,831,832,835,834,834,832,834,835,832,832,829,830,829,827,829,832,831,830,826,828,829,826,826,829,828,828,831,829,826,825,827,827,824,823,825,823,823,822,825,829,821,827,821,819,821,817,814,813,815,815,813,801,794,760,701,745,778,795,796,805,819,820,822,815,819,820,825,833,815,818,821,825,809,32001,849,834,32001,32001,32001,32001,32001,32001,32001,32001,32001,32001,32001,32001,32001,32001,32001
32001,776,775,773,780,785,787,791,788,793,803,811,816,817,814,808,810,817,814,835,835,833,816,811,808,810,809,807,806,811,814,811,805,810,808,812,810,810,804,809,813,807,803,803,801,802,802,808,808,801,809,815,806,810,32001,32001,32001,32001,32001,32001,32001,32001,32001,32001,788,800,807,810,810,807,809,808,810,812,812,810,810,811,809,809,810,809,808,816,816,810,811,811,812,813,812,813,812,813,817,815,814,810,814,815,813,812,808,817,814,810,813,809,814,817,812,811,815,813,813,817,815,817,814,813,810,813,816,813,813,814,820,817,816,815,813,814,817,816,816,817,818,816,819,819,822,814,816,819,819,818,823,820,817,820,820,822,823,818,822,821,825,824,823,825,823,831,829,826,827,822,825,822,826,823,828,825,825,829,828,827,833,835,835,833,826,828,834,832,831,834,832,831,831,832,832,833,831,830,829,835,833,832,831,831,830,834,831,829,830,827,832,834,832,831,830,831,829,829,829,832,835,836,837,835,834,837,833,830,830,831,832,834,834,831,832,831,832,832,830,832,835,833,831,828,828,830,829,832,830,830,827,829,827,832,826,828,828,826,826,828,826,826,824,824,825,822,819,825,822,821,819,821,824,820,824,820,818,822,825,821,822,819,820,813,807,806,778,698,711,760,786,799,821,834,822,817,829,864,846,833,834,32001,32001,32001,32001,32001,32001,32001,32001,32001,32001,32001,32001,32001,32001,32001,32001,32001,32001,32001,32001,32001,32001,32001
32001,765,771,780,778,777,775,780,784,792,802,810,808,809,811,804,805,807,814,808,830,825,813,811,808,805,807,804,804,809,809,815,809,811,812,818,810,812,809,812,818,812,808,808,805,803,802,807,808,805,806,808,801,32001,32001,32001,32001,32001,32001,32001,32001,32001,32001,32001,797,811,807,807,806,808,809,806,806,811,810,808,808,810,808,811,813,812,807,811,813,812,809,811,812,814,810,812,808,811,812,812,809,807,810,810,810,813,809,820,817,813,814,808,811,812,809,809,811,811,811,811,809,816,814,812,809,811,814,811,817,813,815,811,811,814,811,812,817,815,812,816,818,813,818,819,818,813,817,820,816,818,821,821,816,814,819,821,822,818,820,818,818,819,820,822,824,826,825,825,823,821,825,823,826,824,826,825,827,826,830,826,830,830,837,831,826,827,831,829,829,830,832,830,830,831,832,828,825,825,828,828,835,829,827,833,831,831,829,827,831,826,830,833,829,832,831,828,829,829,829,831,833,833,833,834,833,836,832,830,831,832,831,832,835,830,832,831,829,831,831,831,836,832,830,831,830,829,831,831,829,829,825,827,828,833,828,831,828,826,825,827,825,824,824,826,826,825,822,825,820,821,820,822,824,822,823,820,820,820,819,816,815,817,823,816,809,805,795,711,670,759,790,803,811,839,862,32001,32001,32001,32001,32001,32001,32001,32001,32001,32001,32001,32001,32001,32001,32001,32001,32001,32001,32001,32001,32001,32001,32001,32001,32001,32001,32001,32001,32001
32001,794,800,782,779,781,782,787,785,793,800,805,805,806,804,800,801,801,806,822,825,819,812,809,807,804,810,801,805,806,807,812,803,807,805,808,805,807,806,805,813,812,801,799,798,800,797,806,808,808,803,803,809,859,32001,32001,32001,32001,32001,32001,32001,32001,32001,32001,805,805,800,802,807,808,809,810,807,818,814,813,809,813,811,810,812,811,808,810,810,812,803,807,809,812,808,811,813,811,811,813,810,808,808,809,812,811,807,816,815,815,812,808,810,813,811,810,813,809,812,813,816,814,814,811,810,813,810,817,817,812,815,810,809,813,811,812,817,813,810,816,815,814,818,815,820,815,816,819,815,814,820,816,813,813,817,818,818,817,819,818,818,818,819,820,819,825,825,824,827,821,824,821,823,824,824,822,825,823,829,823,825,828,835,833,822,826,828,828,829,830,832,833,826,826,829,825,825,829,830,829,834,828,829,832,828,831,830,828,830,825,832,830,831,836,831,829,826,827,829,831,832,831,833,833,833,835,831,829,830,830,835,830,836,829,832,830,828,830,827,829,833,832,831,828,830,830,832,828,825,825,824,827,825,829,827,828,829,829,826,825,824,825,822,828,826,826,822,822,818,822,820,824,824,821,821,819,819,818,814,813,812,820,825,818,811,805,793,32001,32001,32001,799,826,32001,872,873,32001,32001,32001,32001,32001,32001,32001,32001,32001,32001,32001,32001,32001,32001,32001,32001,32001,32001,32001,32001,32001,32001,32001,32001,32001,32001,32001,32001,32001
32001,775,794,781,777,779,782,783,782,786,792,800,801,805,808,799,804,807,816,818,817,817,810,810,808,801,806,807,807,807,807,807,802,804,801,805,800,804,811,807,809,805,796,797,797,799,800,808,806,806,803,802,818,32001,32001,32001,32001,32001,32001,32001,32001,32001,32001,32001,835,825,810,808,808,805,807,807,807,812,810,809,806,811,812,808,811,811,809,812,811,813,807,808,813,812,811,811,813,810,811,810,808,807,808,808,809,805,807,812,811,810,809,809,810,811,810,810,810,810,810,809,809,810,812,810,813,813,810,810,810,811,813,810,810,816,815,814,816,814,815,816,813,814,816,812,818,814,818,817,815,812,816,816,814,814,816,817,819,817,819,820,819,821,820,816,821,822,822,824,824,818,824,822,826,827,825,826,825,823,829,825,826,829,836,831,825,830,827,826,829,829,833,834,825,829,827,825,826,828,830,830,835,827,828,830,828,829,830,829,835,830,830,829,829,832,829,830,827,828,831,829,830,826,832,832,835,834,829,827,830,827,832,829,833,829,830,831,830,832,828,830,830,830,831,830,829,827,830,831,828,827,826,828,826,832,825,828,828,828,825,824,823,824,824,825,824,826,825,825,820,821,823,823,822,823,819,820,820,818,813,813,814,821,819,818,812,804,794,754,669,709,32001,32001,32001,32001,32001,32001,32001,32001,32001,32001,32001,906,32001,32001,32001,32001,32001,32001,32001,32001,32001,32001,32001,32001,32001,32001,32001,32001,32001,32001,32001,32001,32001,32001
32001,769,770,774,783,785,779,780,782,787,793,799,804,803,802,800,806,805,811,811,821,815,807,808,807,802,805,805,807,806,808,808,801,812,808,809,803,801,809,808,805,808,797,796,797,799,796,803,806,801,804,795,839,32001,32001,32001,32001,32001,32001,32001,32001,32001,32001,32001,846,817,813,805,808,805,804,805,805,807,809,810,809,810,812,808,808,806,804,805,809,811,807,807,814,812,810,810,810,810,806,808,810,805,806,808,809,804,805,810,811,811,812,807,808,806,813,809,809,813,811,808,810,809,811,809,804,809,808,808,809,811,813,812,810,814,814,814,814,818,812,819,811,812,814,811,817,813,816,815,819,817,819,818,814,814,816,815,818,816,817,818,816,818,819,819,820,817,825,820,823,820,826,822,824,826,824,825,821,823,826,821,824,829,835,836,829,832,828,829,826,827,830,827,823,827,825,826,825,830,832,827,835,826,831,832,827,830,831,829,834,829,832,828,828,831,831,829,826,826,828,828,830,827,827,827,830,832,828,826,830,827,832,832,835,830,830,831,829,832,830,828,828,831,830,831,830,829,834,835,827,830,829,829,826,829,826,827,830,826,825,824,822,825,822,829,825,823,820,820,818,822,822,824,825,823,820,821,821,818,816,817,816,818,817,816,811,803,796,776,673,716,755,32001,32001,32001,32001,32001,32001,32001,32001,32001,32001,32001,32001,32001,32001,32001,32001,32001,32001,32001,32001,32001,32001,32001,32001,32001,32001,32001,32001,32001,32001,32001,32001,32001
32001,774,782,783,783,786,779,779,783,790,798,802,806,805,805,805,811,805,813,813,823,822,816,813,809,802,807,805,803,802,803,807,803,808,805,808,804,806,807,802,802,804,800,796,802,802,801,800,805,803,802,795,32001,32001,32001,32001,32001,32001,32001,32001,32001,32001,32001,32001,32001,814,796,802,805,806,803,806,804,807,808,806,808,809,810,808,811,810,807,812,813,811,806,805,808,808,808,808,805,810,808,811,810,803,804,811,811,805,806,811,811,811,813,809,812,811,816,810,810,814,811,808,809,808,812,812,808,808,807,807,808,810,811,810,809,811,813,812,812,813,811,814,811,814,815,811,815,812,817,816,815,814,817,817,816,815,818,818,818,819,817,818,817,817,821,819,819,818,825,818,819,817,823,823,822,822,822,822,820,824,826,820,823,828,828,830,826,832,831,828,822,823,825,827,823,830,824,824,823,826,827,826,831,825,828,830,825,827,828,826,830,828,830,828,831,829,828,829,827,826,828,827,829,827,827,830,832,831,828,826,827,825,828,829,833,830,831,829,831,832,831,829,825,829,829,831,831,830,833,830,824,826,829,828,826,829,827,829,829,825,826,823,822,826,821,824,822,823,822,821,820,821,824,823,823,822,818,822,821,821,819,816,818,813,820,817,810,805,796,786,688,690,727,32001,32001,32001,32001,32001,32001,32001,32001,32001,32001,32001,32001,32001,32001,32001,32001,32001,32001,32001,32001,32001,32001,32001,32001,32001,32001,32001,32001,32001,32001,32001,32001,32001
32001,788,774,781,779,783,779,785,788,797,810,808,809,807,806,806,810,802,809,809,817,821,812,808,809,801,803,810,807,806,805,808,803,807,811,810,801,806,804,800,797,803,796,799,801,801,794,800,802,804,801,821,32001,32001,32001,32001,32001,32001,32001,32001,32001,32001,32001,32001,32001,815,809,806,806,806,803,808,804,804,801,805,806,807,809,809,809,807,805,809,808,808,806,803,804,809,805,807,804,805,805,809,807,805,808,807,807,803,804,810,812,813,811,805,807,807,814,808,809,808,808,805,808,807,811,812,807,807,808,806,809,810,813,811,811,807,810,808,811,811,810,810,808,811,813,809,814,812,814,813,813,812,814,816,814,817,816,816,819,821,818,819,820,816,822,818,819,816,820,813,817,816,819,821,822,819,818,820,820,822,823,816,822,824,821,825,822,828,824,824,823,826,828,828,824,827,827,828,824,827,826,828,831,823,829,831,823,828,826,826,829,830,830,829,828,825,828,826,830,829,830,827,830,829,827,828,827,827,829,825,827,826,829,830,831,830,828,828,829,834,828,830,827,827,828,832,828,828,832,828,823,829,831,832,829,829,827,829,828,824,822,820,822,825,823,825,824,824,821,820,819,820,824,822,822,823,820,821,821,818,816,818,816,816,820,817,813,805,802,787,716,687,696,32001,32001,32001,32001,32001,32001,32001,32001,32001,32001,32001,32001,32001,32001,32001,32001,32001,32001,32001,32001,32001,32001,32001,32001,32001,32001,32001,32001,32001,32001,32001,32001,32001
32001,787,773,784,782,782,778,788,796,799,800,805,805,802,803,804,807,802,808,815,809,815,813,805,806,801,803,802,806,803,800,806,801,806,808,805,806,807,808,797,798,798,797,800,802,800,796,799,799,800,805,827,32001,32001,32001,32001,32001,32001,32001,32001,32001,32001,32001,32001,32001,32001,811,806,808,812,804,810,802,803,800,804,805,806,804,806,807,806,809,812,807,805,806,805,806,809,808,807,803,806,803,807,806,804,807,806,807,805,809,812,810,814,806,804,805,807,811,809,808,809,808,806,806,808,808,809,805,805,805,805,808,808,808,809,808,812,811,807,810,814,811,813,809,811,812,811,814,812,812,811,814,812,813,815,814,816,815,817,819,820,817,817,818,818,819,818,819,817,817,814,818,817,820,821,825,825,821,821,820,822,820,817,819,825,823,827,823,827,824,822,823,824,827,827,825,830,828,828,824,826,827,827,828,823,828,829,821,825,823,822,825,826,827,826,825,823,826,823,826,827,827,825,829,825,824,827,827,827,828,825,829,826,827,828,829,827,828,826,827,834,829,829,823,826,827,831,827,828,831,829,823,828,829,831,827,828,827,827,826,822,821,819,822,823,824,825,823,823,824,821,821,821,821,821,823,826,821,816,820,818,816,817,818,816,818,818,815,806,800,787,759,32001,32001,32001,32001,32001,32001,32001,32001,32001,32001,32001,32001,32001,32001,32001,32001,32001,32001,32001,32001,32001,32001,32001,32001,32001,32001,32001,32001,32001,32001,32001,32001,32001,32001,32001
32001,779,789,794,789,785,786,795,798,792,803,800,801,803,800,801,804,802,804,806,803,804,805,805,808,803,799,799,798,800,803,802,802,805,806,805,797,805,801,798,801,800,795,799,804,802,802,797,799,796,809,32001,32001,32001,32001,32001,32001,32001,32001,32001,32001,32001,32001,32001,32001,32001,812,816,808,808,802,806,799,801,799,803,806,804,801,807,805,804,808,810,806,806,805,803,803,807,802,804,800,801,803,803,803,802,804,802,804,805,807,809,809,810,806,804,806,802,810,809,807,811,805,803,805,806,807,807,802,804,805,804,805,804,806,807,809,810,811,808,813,816,813,811,807,810,813,811,816,816,811,812,813,814,814,814,811,813,810,814,819,820,818,814,818,816,816,817,815,818,817,813,818,815,819,821,820,822,820,820,818,819,820,817,815,820,821,824,823,828,825,825,824,823,824,825,824,825,823,825,825,827,827,827,828,825,825,826,820,824,823,823,824,823,826,825,821,822,826,824,825,826,827,823,827,828,825,825,830,829,829,830,829,830,826,827,830,824,829,826,827,832,829,829,826,824,825,830,826,826,826,829,824,827,828,830,828,828,826,826,826,827,826,821,822,823,825,823,824,823,823,822,821,821,823,823,823,821,819,816,818,817,813,819,819,816,818,816,811,807,803,791,768,673,689,32001,32001,32001,32001,32001,32001,32001,32001,32001,32001,32001,32001,32001,32001,32001,32001,32001,32001,32001,32001,32001,32001,32001,32001,32001,32001,32001,32001,32001,32001,32001,32001,32001
32001,32001,32001,817,804,788,790,795,805,800,804,805,809,804,803,802,801,800,800,810,812,806,803,800,807,806,801,796,793,802,805,801,799,799,805,804,799,803,799,792,799,798,798,798,795,798,796,796,801,796,785,32001,32001,32001,32001,32001,32001,32001,32001,32001,32001,32001,32001,32001,32001,32001,32001,818,806,805,800,802,800,802,799,804,804,804,801,802,801,800,804,805,805,805,807,804,804,807,800,805,803,804,803,804,809,802,804,801,801,802,802,803,805,808,808,806,806,804,808,808,805,806,804,805,806,806,807,809,804,807,810,806,808,810,813,808,808,812,811,808,810,815,809,811,807,808,809,810,814,812,811,807,815,811,814,813,812,815,816,815,818,822,819,815,819,816,816,818,814,815,815,814,821,816,818,821,821,823,819,819,815,821,818,820,818,821,824,826,825,828,825,825,826,822,822,823,825,825,824,825,825,824,824,826,822,822,825,824,820,823,823,825,827,826,826,827,823,820,823,820,825,826,825,824,828,825,825,823,830,828,831,830,829,828,825,828,830,826,832,828,826,831,829,830,826,826,827,831,825,826,827,828,826,826,826,826,827,829,828,827,825,825,828,822,824,825,826,824,824,822,824,820,821,823,824,823,822,821,817,818,817,817,814,819,816,816,818,819,813,815,805,795,772,676,672,32001,32001,32001,32001,32001,32001,32001,32001,32001,32001,32001,32001,32001,32001,32001,32001,32001,32001,32001,32001,32001,32001,32001,32001,32001,32001,32001,32001,32001,32001,32001,32001,32001
32001,32001,32001,32001,790,800,819,806,809,796,799,800,798,802,799,801,802,803,804,801,800,800,797,799,808,804,801,794,794,799,801,803,797,800,804,796,793,799,795,794,800,801,802,797,796,801,800,797,806,795,32001,32001,32001,32001,32001,32001,32001,32001,32001,32001,32001,32001,32001,32001,32001,32001,32001,816,809,805,800,801,801,804,801,801,801,803,801,804,803,806,806,807,805,805,805,803,801,804,801,807,804,803,803,804,810,806,804,802,804,802,804,802,806,809,809,805,805,804,809,807,808,806,803,805,804,805,804,804,801,803,809,803,806,808,811,807,806,807,807,806,810,813,813,815,808,809,811,810,812,816,817,808,812,811,813,811,809,816,815,816,818,820,820,815,820,817,818,817,814,816,813,815,820,814,818,821,823,824,820,819,817,820,818,819,818,822,821,825,822,825,824,822,827,823,824,824,821,821,825,826,825,822,821,821,823,820,826,823,820,825,827,828,827,826,828,825,822,821,824,824,829,828,828,824,827,824,822,825,831,828,832,829,829,827,824,828,827,825,830,826,825,830,828,830,824,826,826,828,824,824,827,826,827,824,827,827,828,831,829,830,826,825,830,822,823,822,828,826,825,823,821,819,821,821,819,820,819,821,815,814,816,816,814,818,813,814,815,813,812,810,804,791,776,684,661,32001,32001,32001,32001,32001,32001,32001,32001,32001,32001,32001,32001,32001,32001,32001,32001,32001,32001,32001,32001,32001,32001,32001,32001,32001,32001,32001,32001,32001,32001,32001,32001,32001
32001,794,786,782,787,796,808,808,805,799,797,803,802,801,800,801,801,804,804,804,808,808,800,799,802,800,798,792,796,801,802,800,797,805,799,796,794,797,797,795,799,798,801,798,794,800,797,795,807,811,32001,32001,32001,32001,32001,32001,32001,32001,32001,32001,32001,32001,32001,32001,32001,32001,32001,32001,811,808,799,800,797,800,801,798,801,804,803,804,803,803,803,804,804,803,805,803,800,805,803,806,806,804,805,804,808,805,807,804,805,803,802,800,803,808,807,801,805,805,810,808,808,808,805,804,807,806,807,806,801,804,809,801,803,806,810,806,804,806,810,808,809,811,811,813,806,807,810,811,811,813,812,808,814,810,813,809,809,816,816,815,815,819,817,813,813,813,815,815,812,816,813,814,820,813,816,818,820,825,819,819,818,819,816,820,817,819,818,822,819,824,824,820,822,822,825,827,827,823,822,826,824,821,824,818,823,822,825,822,821,825,828,827,827,824,826,823,824,821,825,823,827,826,827,824,825,823,825,824,829,828,829,826,826,827,824,828,829,823,830,827,824,825,825,829,822,824,825,827,826,826,827,828,830,825,827,823,826,829,824,827,827,825,830,822,824,821,826,826,823,822,821,821,822,825,820,820,821,818,817,817,819,823,814,818,814,814,813,816,816,810,807,794,788,713,666,32001,32001,32001,32001,32001,32001,32001,32001,32001,32001,32001,32001,32001,32001,32001,32001,32001,32001,32001,32001,32001,32001,32001,32001,32001,32001,32001,32001,32001,32001,32001,32001,32001
32001,781,785,787,793,799,804,808,805,802,803,800,796,793,793,796,793,797,799,804,803,802,799,797,795,792,796,795,795,804,802,803,798,798,793,794,791,796,793,791,797,796,795,792,793,798,793,800,801,787,32001,32001,32001,32001,32001,32001,32001,32001,32001,32001,32001,32001,32001,32001,32001,32001,32001,32001,799,809,806,802,799,801,801,799,801,801,802,804,802,804,802,803,802,802,800,804,800,804,802,805,807,804,804,804,805,800,804,801,805,804,805,803,804,807,804,800,803,803,804,805,805,806,806,804,809,801,804,804,798,806,807,803,802,806,808,806,804,808,808,808,805,807,805,807,804,805,807,807,807,809,814,807,810,809,812,810,806,813,816,811,812,816,816,812,815,817,817,818,814,815,814,816,817,814,817,821,820,824,818,818,818,817,814,819,820,821,819,822,823,824,821,819,822,818,822,822,823,819,822,825,825,824,822,820,821,824,823,822,822,823,827,821,825,824,827,823,823,822,821,823,823,822,824,824,824,824,825,825,828,823,825,824,824,827,825,825,827,822,828,822,822,823,824,826,826,826,826,828,826,829,827,827,825,823,826,823,829,828,827,828,825,823,829,820,823,822,824,823,819,820,822,819,821,823,820,819,821,819,817,820,820,820,816,818,814,811,813,815,822,812,806,795,785,762,657,699,32001,32001,32001,32001,32001,32001,32001,32001,32001,32001,32001,32001,32001,32001,32001,32001,32001,32001,32001,32001,32001,32001,32001,32001,32001,32001,32001,32001,32001,32001,32001,32001
32001,784,786,783,794,799,808,807,800,799,797,799,799,795,796,798,796,801,796,797,803,809,795,797,801,795,800,801,800,811,809,803,794,795,793,795,790,797,793,794,799,791,805,806,800,800,794,793,794,32001,32001,32001,32001,32001,32001,32001,32001,32001,32001,32001,32001,32001,32001,32001,32001,32001,32001,32001,32001,838,811,811,803,803,801,795,800,799,802,802,801,802,802,803,804,802,800,806,801,804,802,803,805,803,806,806,805,802,801,801,801,802,798,801,802,808,803,801,805,805,803,806,802,802,802,804,806,804,800,801,798,806,807,803,806,804,804,803,799,800,800,809,808,809,804,805,801,802,806,804,807,809,814,809,810,808,810,808,805,810,815,810,811,813,815,811,815,818,816,818,813,813,813,815,817,812,814,817,815,820,814,816,814,816,817,818,817,817,817,823,825,824,823,822,823,821,824,822,823,819,823,824,822,822,820,821,822,824,822,822,824,825,825,823,827,825,829,826,821,823,822,823,824,822,823,821,822,824,823,822,827,825,824,824,825,830,824,825,824,820,827,823,822,822,824,826,827,827,823,826,824,826,827,826,825,824,825,820,824,824,823,823,825,822,826,822,824,821,821,823,820,820,820,817,818,823,819,819,819,821,819,822,822,824,816,813,812,811,813,810,812,811,801,796,788,772,668,681,32001,32001,32001,32001,32001,32001,32001,32001,32001,32001,32001,32001,32001,32001,32001,32001,32001,32001,32001,32001,32001,32001,32001,32001,32001,32001,32001,32001,32001,32001,32001,32001
32001,778,779,784,793,797,799,797,795,797,798,803,798,795,798,794,796,799,797,799,801,803,794,796,803,800,806,812,803,807,803,794,793,788,787,792,799,804,803,800,810,802,808,816,824,822,809,823,796,32001,32001,32001,32001,32001,32001,32001,32001,32001,32001,32001,32001,32001,32001,32001,32001,32001,32001,32001,32001,32001,805,812,805,802,800,797,800,800,800,800,803,802,799,800,801,800,797,802,798,802,803,803,806,803,800,800,804,800,802,801,802,801,797,799,798,806,800,801,802,800,801,804,802,802,799,802,804,801,804,808,798,806,805,803,802,803,802,802,806,809,808,815,816,817,814,813,815,809,806,803,806,811,816,810,813,813,813,809,806,814,813,810,811,813,812,812,813,815,812,817,813,811,811,817,816,814,814,819,818,818,812,814,815,816,818,819,818,820,816,821,822,818,822,819,821,819,818,821,822,817,821,825,821,819,820,818,821,821,823,821,824,824,822,823,823,823,824,822,822,822,822,822,821,822,823,822,822,821,823,819,824,821,823,823,824,824,824,825,822,821,826,825,823,818,823,822,826,823,823,826,825,823,824,825,825,821,821,817,825,824,824,825,827,822,826,823,824,819,822,822,819,823,818,816,818,823,818,820,819,820,818,819,816,821,815,817,811,809,814,810,810,808,802,798,791,769,675,658,32001,32001,32001,32001,32001,32001,32001,32001,32001,32001,32001,32001,32001,32001,32001,32001,32001,32001,32001,32001,32001,32001,32001,32001,32001,32001,32001,32001,32001,32001,32001,32001
32001,780,780,790,800,802,804,801,797,798,797,802,802,802,798,798,795,797,795,795,795,801,800,795,806,806,802,812,807,801,795,789,787,796,791,785,785,819,32001,32001,32001,32001,32001,32001,32001,32001,32001,32001,32001,32001,32001,32001,32001,32001,32001,32001,32001,32001,32001,32001,32001,32001,32001,32001,32001,32001,32001,32001,32001,32001,832,826,803,798,797,796,798,800,796,798,798,799,800,803,803,803,799,804,801,804,803,800,801,801,801,806,805,801,802,800,804,803,796,798,798,804,801,799,802,799,801,799,803,799,797,802,802,801,799,805,798,806,803,804,799,804,800,818,821,847,828,830,857,842,835,823,830,815,822,808,807,807,809,807,807,809,810,806,806,813,816,812,811,813,814,812,811,813,812,815,811,811,811,815,815,814,814,817,818,815,812,816,818,815,815,817,817,816,816,820,822,817,816,816,816,819,817,820,819,816,820,821,821,817,820,820,819,819,822,821,825,822,820,823,825,825,828,823,825,824,823,826,823,822,820,820,820,818,820,821,823,822,822,820,822,822,824,825,822,823,827,826,825,821,824,822,823,826,824,827,825,826,825,824,823,823,824,819,824,823,824,826,824,822,824,825,822,819,821,822,819,823,819,820,819,824,822,817,817,821,820,819,818,821,818,815,812,808,814,812,814,808,804,799,792,774,682,646,32001,32001,32001,32001,32001,32001,32001,32001,32001,32001,32001,32001,32001,32001,32001,32001,32001,32001,32001,32001,32001,32001,32001,32001,32001,32001,32001,32001,32001,32001,32001,32001
32001,784,786,786,797,802,803,803,803,799,801,802,797,801,796,795,797,799,799,797,797,803,813,813,826,815,796,806,798,807,793,793,781,782,32001,32001,32001,32001,32001,32001,32001,32001,32001,32001,32001,32001,32001,32001,32001,32001,32001,32001,32001,32001,32001,32001,32001,32001,32001,32001,32001,32001,32001,32001,32001,32001,32001,32001,32001,32001,32001,820,810,797,794,795,800,800,798,801,800,803,800,801,801,801,801,800,800,804,803,802,807,803,800,802,802,801,801,796,804,802,799,799,799,804,800,802,803,802,802,799,806,806,799,800,803,795,797,801,796,802,804,803,799,803,810,825,819,32001,32001,32001,32001,32001,32001,32001,796,823,821,808,806,807,809,808,804,808,810,809,809,812,817,811,811,816,815,808,809,812,811,810,813,810,814,813,815,812,814,818,823,814,815,816,817,818,818,816,815,815,814,819,824,818,821,817,816,817,818,818,819,819,819,819,821,818,818,819,819,821,823,819,821,821,819,818,822,820,823,822,823,822,820,824,822,822,821,822,821,818,820,821,823,823,821,819,822,823,822,822,821,822,826,823,823,819,822,824,824,826,821,825,823,825,825,823,824,823,824,821,825,824,824,828,829,820,823,821,821,820,821,821,819,823,821,819,820,824,820,815,815,820,816,816,813,822,814,815,810,809,811,810,812,810,806,802,792,783,752,32001,32001,32001,32001,32001,32001,32001,32001,32001,32001,32001,32001,32001,32001,32001,32001,32001,32001,32001,32001,32001,32001,32001,32001,32001,32001,32001,32001,32001,32001,32001,32001,32001
32001,794,792,797,804,807,802,798,792,793,797,800,801,800,800,796,792,797,797,793,799,797,802,789,796,800,793,803,820,811,785,792,32001,32001,32001,32001,32001,32001,32001,32001,32001,32001,32001,32001,32001,32001,32001,32001,32001,32001,32001,32001,32001,32001,32001,32001,32001,32001,32001,32001,32001,32001,32001,32001,32001,32001,32001,32001,32001,32001,32001,32001,797,803,804,799,799,798,800,800,802,805,799,803,801,801,800,799,801,801,801,799,801,799,799,801,799,799,803,796,801,801,799,799,799,800,799,801,800,799,800,794,799,801,797,801,802,803,799,804,797,801,799,800,795,811,827,822,857,32001,32001,32001,32001,32001,32001,32001,32001,32001,871,826,817,808,807,808,805,808,808,807,810,811,815,811,807,811,813,807,810,812,809,806,809,809,808,810,813,811,811,815,815,812,813,810,814,816,818,817,821,816,814,817,820,815,819,817,815,817,820,820,822,822,820,822,821,820,820,822,822,821,821,819,823,822,820,819,821,821,820,819,822,820,819,822,823,822,822,822,824,822,822,824,824,821,823,819,823,824,822,820,818,820,823,821,821,820,822,825,824,827,826,826,824,825,824,823,823,819,823,820,826,824,825,827,826,820,823,821,819,818,819,822,821,821,818,820,819,825,822,814,816,821,819,820,814,819,815,815,814,812,812,813,813,810,807,801,796,780,755,652,693,32001,32001,32001,32001,32001,32001,32001,32001,32001,32001,32001,32001,32001,32001,32001,32001,32001,32001,32001,32001,32001,32001,32001,32001,32001,32001,32001,32001,32001,32001,32001
32001,785,786,794,800,802,799,799,790,793,795,793,792,796,798,799,792,793,799,792,798,796,788,790,795,802,802,799,781,32001,32001,32001,32001,32001,32001,32001,32001,32001,32001,32001,32001,32001,32001,32001,32001,32001,32001,32001,32001,32001,32001,32001,32001,32001,32001,32001,32001,32001,32001,32001,32001,32001,32001,32001,32001,32001,32001,32001,32001,32001,32001,32001,802,808,801,797,795,797,797,798,805,806,799,799,799,798,799,796,799,801,800,800,799,800,798,802,800,800,802,800,804,802,800,799,801,799,799,801,801,802,802,797,800,800,794,799,799,797,799,804,799,799,800,794,807,826,32001,32001,32001,32001,32001,32001,32001,32001,32001,32001,32001,32001,825,822,819,809,804,806,805,807,806,806,809,809,810,815,808,810,811,803,806,808,806,805,807,806,809,805,807,808,810,812,809,810,806,806,812,812,816,818,819,814,811,818,820,818,821,819,815,816,821,820,819,822,818,819,818,818,819,820,818,818,821,817,822,821,819,818,822,821,822,819,822,822,821,820,827,823,822,819,821,820,820,823,824,823,827,823,824,824,825,825,818,822,823,823,825,822,823,819,819,824,824,823,822,824,820,822,822,819,823,820,825,822,822,829,827,818,821,821,819,820,817,821,819,820,818,818,819,821,820,813,817,817,817,818,812,821,817,816,814,814,814,814,817,807,803,798,795,787,765,665,669,32001,32001,32001,32001,32001,32001,32001,32001,32001,32001,32001,32001,32001,32001,32001,32001,32001,32001,32001,32001,32001,32001,32001,32001,32001,32001,32001,32001,803,32001,32001
32001,787,787,795,801,804,799,796,792,798,798,795,798,800,801,792,787,794,805,794,796,797,793,790,791,791,811,32001,32001,32001,32001,32001,32001,32001,32001,32001,32001,32001,32001,32001,32001,32001,32001,32001,32001,32001,32001,32001,32001,32001,32001,32001,32001,32001,32001,32001,32001,32001,32001,32001,32001,32001,32001,32001,32001,32001,32001,32001,32001,32001,32001,32001,32001,805,807,796,795,795,795,796,799,803,801,800,800,800,798,796,796,796,799,796,796,802,798,801,797,803,802,800,802,802,800,798,800,800,799,800,799,802,803,796,800,801,794,796,798,799,801,806,799,801,797,792,826,32001,32001,32001,32001,32001,32001,32001,32001,32001,917,32001,32001,32001,32001,843,830,819,806,805,804,804,803,801,805,802,803,808,804,807,810,802,801,803,803,800,803,801,807,804,805,808,808,810,806,803,805,803,811,812,815,813,816,814,814,817,820,818,817,821,816,820,820,818,821,822,815,818,818,816,816,819,815,818,819,816,819,817,816,815,820,819,819,817,818,818,820,819,825,822,820,818,822,818,818,820,822,821,824,822,822,823,822,825,819,824,821,821,824,824,825,821,818,825,824,823,820,824,817,820,823,821,823,819,823,823,821,824,825,819,820,822,821,818,820,822,821,820,818,819,818,818,820,815,815,817,815,817,810,818,816,815,813,812,812,810,813,805,805,801,798,789,779,680,653,32001,32001,32001,32001,32001,32001,32001,32001,32001,32001,32001,32001,32001,32001,32001,32001,32001,32001,32001,32001,32001,32001,32001,32001,32001,32001,32001,32001,32001,32001,32001
32001,792,794,800,799,799,796,794,789,790,796,793,792,794,794,793,797,789,794,787,789,789,789,774,798,32001,32001,32001,32001,32001,32001,32001,32001,32001,32001,32001,32001,32001,32001,32001,32001,32001,32001,32001,32001,32001,32001,32001,32001,32001,32001,32001,32001,32001,32001,32001,32001,32001,32001,32001,32001,32001,32001,32001,32001,32001,32001,32001,32001,32001,32001,32001,32001,32001,818,808,806,798,795,795,797,796,794,796,797,797,795,795,797,799,799,801,800,800,799,798,796,800,801,796,796,799,798,796,796,796,799,801,799,802,804,799,797,800,793,799,798,801,803,799,798,800,796,816,823,32001,32001,32001,32001,32001,32001,32001,32001,32001,32001,32001,32001,32001,32001,806,835,818,804,799,800,802,799,797,801,800,799,801,800,806,807,802,800,804,802,803,803,801,806,802,805,805,805,807,804,804,804,804,806,811,814,810,812,812,809,815,814,817,816,819,814,816,818,817,817,818,814,816,817,816,815,818,816,819,817,816,819,815,815,815,819,817,818,816,815,814,820,818,821,818,818,818,819,816,817,820,823,822,822,824,824,822,822,823,817,820,821,819,822,821,824,821,820,823,820,823,821,824,819,819,821,822,824,821,823,819,823,823,825,820,821,821,820,817,818,821,822,819,817,819,815,818,822,816,816,815,816,815,811,816,816,814,814,813,811,811,811,808,809,803,797,790,777,32001,32001,32001,32001,32001,32001,32001,32001,32001,32001,32001,32001,32001,32001,32001,32001,32001,32001,32001,32001,32001,32001,32001,32001,32001,32001,32001,32001,32001,32001,762,784,32001
32001,790,793,802,802,802,800,794,792,794,801,802,804,803,800,801,792,792,791,792,788,789,785,805,32001,32001,32001,32001,32001,32001,32001,32001,32001,32001,32001,32001,32001,32001,32001,32001,32001,32001,32001,32001,32001,32001,32001,32001,32001,32001,32001,32001,32001,32001,32001,32001,32001,32001,32001,32001,32001,32001,32001,32001,32001,32001,32001,32001,32001,32001,32001,32001,32001,32001,32001,792,796,802,799,796,799,797,796,797,796,795,795,794,802,799,795,800,796,795,797,797,796,798,797,793,800,799,797,797,798,799,803,802,801,802,804,801,795,798,796,798,802,795,800,798,798,799,797,830,32001,32001,32001,32001,816,807,32001,32001,32001,32001,32001,32001,32001,32001,32001,850,830,820,811,803,803,802,796,797,800,802,799,799,798,801,807,801,800,803,801,802,800,799,804,802,802,804,803,805,801,800,801,805,803,811,814,811,814,813,809,815,814,815,816,817,817,820,818,817,820,818,816,818,813,815,818,819,818,820,816,815,819,817,816,815,822,820,822,817,814,814,818,818,822,817,816,817,820,817,819,820,822,822,823,821,821,822,822,825,821,821,819,817,821,822,825,824,821,823,822,823,820,822,818,818,821,823,824,819,819,819,820,820,823,820,821,821,822,816,818,821,822,819,818,819,816,815,821,816,819,816,816,815,811,816,815,811,813,811,813,811,814,808,806,803,798,791,785,759,655,697,32001,32001,32001,32001,32001,32001,32001,32001,32001,32001,32001,32001,32001,32001,32001,32001,32001,32001,32001,32001,32001,32001,32001,32001,32001,32001,32001,32001,32001,32001
32001,786,791,796,798,800,802,793,789,792,795,796,798,801,796,796,800,797,795,792,785,790,793,32001,32001,32001,32001,32001,32001,32001,32001,32001,32001,32001,32001,32001,32001,32001,32001,32001,32001,32001,32001,32001,32001,32001,32001,32001,32001,32001,32001,32001,32001,32001,32001,32001,32001,32001,32001,32001,32001,32001,32001,32001,32001,32001,32001,32001,32001,32001,32001,32001,32001,32001,32001,32001,807,813,804,797,797,798,795,794,791,793,793,795,799,796,794,803,797,797,797,799,801,800,796,794,800,799,799,798,796,796,800,797,800,802,803,799,796,797,796,795,798,798,797,791,795,793,789,828,32001,32001,32001,32001,810,818,32001,32001,32001,32001,32001,32001,32001,32001,32001,32001,857,828,812,804,804,801,799,796,796,797,796,796,798,804,807,804,801,803,800,804,801,800,803,801,803,802,804,805,803,802,803,809,807,810,816,809,812,811,808,814,813,816,818,817,814,818,815,815,819,817,815,815,813,813,815,817,817,819,815,817,820,815,814,811,822,819,823,820,817,817,817,816,821,818,816,818,821,819,821,821,821,821,822,819,821,818,820,818,816,816,816,815,821,820,824,823,821,825,820,822,818,822,820,819,819,820,820,818,818,820,820,818,820,819,819,818,818,814,814,817,821,816,816,818,815,812,818,814,817,817,816,817,814,816,812,810,816,811,814,810,812,810,805,802,799,790,787,762,656,690,32001,32001,32001,32001,32001,32001,32001,32001,32001,32001,32001,32001,32001,32001,32001,32001,32001,32001,32001,32001,32001,32001,32001,32001,32001,32001,32001,32001,32001,32001
32001,787,797,796,797,799,801,796,792,794,796,793,787,791,789,785,791,789,794,788,796,806,821,32001,32001,32001,32001,32001,32001,32001,32001,32001,32001,32001,32001,32001,32001,32001,32001,32001,32001,32001,32001,32001,32001,32001,32001,32001,32001,32001,32001,32001,32001,32001,32001,32001,32001,32001,32001,32001,32001,32001,32001,32001,32001,32001,32001,32001,32001,32001,32001,32001,32001,32001,32001,32001,32001,811,808,799,795,793,795,793,793,793,793,795,799,793,793,796,794,800,797,797,798,796,794,797,800,796,799,794,793,794,799,798,800,799,795,797,796,793,792,793,795,793,798,792,796,792,788,834,32001,32001,32001,32001,786,781,32001,32001,32001,32001,32001,815,813,32001,32001,32001,846,821,807,802,801,797,796,795,800,797,796,794,798,804,808,805,803,804,800,804,800,800,805,803,803,802,804,803,798,802,801,809,803,807,815,811,812,810,808,812,813,812,817,811,812,813,809,811,814,814,815,817,812,811,815,815,817,816,811,816,816,813,818,816,821,816,824,820,815,814,816,813,818,814,814,815,821,818,822,821,821,823,824,819,820,818,820,819,817,816,816,814,819,816,823,821,819,820,817,819,816,820,817,818,818,818,817,818,820,819,821,815,819,820,815,819,820,814,815,817,820,820,817,816,815,813,818,817,818,816,816,815,815,815,810,809,814,811,817,812,808,811,807,804,796,793,789,777,666,652,32001,32001,32001,32001,32001,32001,32001,32001,32001,32001,32001,32001,32001,32001,32001,32001,32001,32001,32001,32001,32001,32001,32001,32001,32001,32001,32001,32001,32001,32001
32001,789,794,797,796,798,796,796,790,791,787,787,785,787,786,783,792,793,798,807,786,807,32001,32001,32001,32001,32001,32001,32001,32001,32001,32001,32001,32001,32001,32001,32001,32001,32001,32001,32001,32001,32001,32001,32001,32001,32001,32001,32001,32001,32001,32001,32001,32001,32001,32001,32001,32001,32001,32001,32001,32001,32001,32001,32001,32001,32001,32001,32001,32001,32001,32001,32001,32001,32001,32001,32001,32001,799,810,804,795,797,794,792,793,793,794,796,792,790,794,795,796,796,794,792,795,791,796,798,795,797,795,793,793,797,795,799,800,797,799,795,792,792,793,796,793,797,788,790,789,782,826,32001,32001,32001,787,777,799,32001,32001,32001,32001,32001,844,843,32001,32001,32001,855,827,810,804,802,797,795,794,797,797,796,796,798,801,801,801,802,802,801,803,799,800,802,802,805,801,804,802,802,802,802,810,802,809,815,811,814,811,810,813,813,811,816,811,810,813,811,813,817,813,814,815,813,815,817,815,818,819,813,817,816,816,816,814,817,815,822,817,816,814,819,816,817,815,815,820,824,819,822,820,819,820,822,821,817,816,818,820,821,818,819,815,819,817,822,820,817,821,818,819,818,819,818,820,817,818,819,818,819,820,822,816,819,821,815,818,820,814,814,819,818,820,816,815,816,813,818,817,818,819,815,814,815,817,810,812,812,811,813,812,805,808,804,804,800,793,789,779,685,645,32001,32001,32001,32001,32001,32001,32001,32001,32001,32001,32001,32001,32001,32001,32001,32001,32001,32001,32001,32001,32001,32001,32001,32001,32001,32001,32001,32001,32001,32001
32001,786,791,795,794,793,793,790,787,797,794,791,787,788,788,785,795,796,794,786,789,828,32001,32001,32001,32001,32001,32001,32001,32001,32001,32001,32001,32001,32001,32001,32001,32001,32001,32001,32001,32001,32001,32001,32001,32001,32001,32001,32001,32001,32001,32001,32001,32001,32001,32001,32001,32001,32001,32001,32001,32001,32001,32001,32001,32001,32001,32001,32001,32001,32001,32001,32001,32001,32001,32001,32001,32001,826,812,812,796,794,791,789,789,790,792,795,791,793,797,794,796,795,795,790,792,792,795,793,793,795,792,795,794,792,793,798,798,795,799,795,795,792,786,794,792,795,788,788,792,796,815,32001,32001,803,810,798,802,32001,32001,32001,32001,32001,831,810,32001,32001,32001,841,814,800,797,795,795,792,791,796,797,797,796,798,800,800,803,803,802,799,800,793,796,799,798,804,801,801,800,802,804,803,808,801,807,814,810,811,811,809,810,812,809,815,811,809,814,810,811,814,811,815,813,813,812,816,814,821,819,813,819,817,816,816,815,820,816,821,813,815,812,817,815,816,816,815,819,824,817,819,818,817,819,820,822,818,816,820,816,822,818,819,815,819,814,819,818,820,821,818,819,821,821,817,818,818,820,818,820,819,819,819,814,818,819,816,819,821,816,815,815,819,819,817,817,818,815,817,815,817,817,814,815,815,813,810,808,810,809,815,811,806,807,803,804,799,794,789,783,737,32001,32001,32001,32001,32001,32001,32001,32001,32001,32001,32001,32001,32001,32001,32001,32001,32001,32001,32001,32001,32001,32001,32001,32001,32001,32001,32001,32001,32001,32001,32001
32001,790,792,791,796,794,796,790,793,789,783,783,783,780,787,787,791,792,785,788,787,32001,32001,32001,32001,32001,32001,32001,32001,32001,32001,32001,32001,32001,32001,32001,32001,32001,32001,32001,32001,32001,32001,32001,32001,32001,32001,32001,32001,32001,32001,32001,32001,32001,32001,32001,32001,32001,32001,32001,32001,32001,32001,32001,32001,32001,32001,32001,32001,32001,32001,32001,32001,32001,32001,32001,32001,32001,32001,32001,803,807,798,791,787,790,789,793,794,791,793,797,794,794,792,794,788,791,793,795,794,793,794,790,790,790,795,790,798,797,791,795,794,795,796,786,795,789,790,784,801,803,815,814,805,802,787,32001,32001,32001,32001,32001,32001,32001,32001,32001,32001,32001,32001,32001,839,808,798,795,792,792,792,791,793,794,796,795,800,799,800,799,799,801,794,790,785,789,791,792,800,799,800,798,801,803,806,808,802,807,812,811,811,812,812,808,810,808,813,812,809,816,812,813,812,810,812,814,812,814,817,813,818,817,812,820,817,816,818,815,816,814,820,814,815,812,817,813,814,813,813,815,819,816,819,817,817,816,818,816,813,815,818,814,819,817,821,814,816,815,817,820,821,821,817,816,822,819,818,818,817,819,818,818,819,819,820,815,818,817,813,817,817,817,816,818,818,817,816,817,817,815,816,813,817,817,813,814,816,814,810,808,808,807,813,807,804,806,806,805,798,793,791,785,761,651,698,32001,32001,32001,32001,32001,32001,32001,32001,32001,32001,32001,32001,32001,32001,32001,32001,32001,32001,32001,32001,32001,32001,32001,32001,32001,32001,32001,32001,32001
32001,787,789,790,783,785,791,792,786,780,782,786,790,788,782,792,788,793,783,804,32001,32001,32001,32001,32001,32001,32001,32001,32001,32001,32001,32001,32001,32001,32001,32001,32001,32001,32001,32001,32001,32001,32001,32001,32001,32001,32001,32001,32001,32001,32001,32001,32001,32001,32001,32001,32001,32001,32001,32001,32001,32001,32001,32001,32001,32001,32001,32001,32001,32001,32001,32001,32001,32001,32001,32001,32001,32001,32001,32001,782,793,801,796,787,791,790,795,793,790,793,795,792,791,790,793,788,789,793,793,794,793,795,789,791,791,795,793,799,794,790,796,791,793,792,785,791,788,788,800,814,823,844,808,808,836,32001,32001,32001,32001,32001,32001,32001,32001,32001,32001,32001,833,840,831,809,800,793,795,796,792,792,791,790,792,795,793,798,798,801,798,800,797,791,774,782,780,787,782,793,798,797,798,799,802,803,806,800,805,809,810,808,811,812,809,812,807,813,810,809,812,812,816,816,812,813,815,812,814,814,812,816,816,812,815,814,814,820,816,816,814,817,811,812,812,818,814,813,813,813,814,814,813,819,816,814,815,815,814,813,814,815,813,821,819,818,815,815,814,817,820,820,820,818,816,819,817,816,818,816,817,816,818,817,816,818,818,817,816,813,816,815,815,814,816,818,817,815,816,816,815,814,812,816,817,813,815,815,814,810,809,810,807,811,805,803,806,805,806,804,799,793,786,761,647,652,32001,32001,32001,32001,32001,32001,32001,32001,32001,32001,32001,32001,32001,32001,32001,32001,32001,32001,32001,32001,32001,32001,32001,32001,32001,32001,32001,32001,32001
32001,792,794,787,784,787,782,781,784,788,793,799,799,795,791,789,782,785,780,785,32001,32001,32001,32001,32001,32001,32001,32001,32001,32001,32001,32001,32001,32001,32001,32001,32001,32001,32001,32001,32001,32001,32001,32001,32001,32001,32001,32001,32001,32001,32001,32001,32001,32001,32001,32001,32001,32001,32001,32001,32001,32001,32001,32001,32001,32001,32001,32001,32001,32001,32001,32001,32001,32001,32001,32001,32001,32001,32001,32001,32001,32001,796,790,797,791,790,792,792,789,791,796,793,791,789,792,785,789,792,793,792,794,796,790,792,791,792,790,799,790,792,795,792,789,788,779,781,798,801,804,834,829,818,807,785,805,814,32001,32001,32001,32001,32001,32001,32001,32001,828,822,851,819,816,800,795,792,794,792,793,793,790,791,790,794,793,797,793,798,797,798,795,804,778,32001,697,32001,753,780,790,794,794,800,803,801,808,802,803,806,808,807,811,811,809,811,806,811,807,807,808,806,810,812,808,810,811,811,812,813,813,815,813,808,814,815,815,817,814,816,817,818,813,811,811,814,813,810,813,813,815,812,811,815,814,814,818,817,814,813,811,815,812,817,814,816,813,813,813,814,817,820,820,819,815,819,815,815,818,814,816,818,816,816,814,815,816,817,816,816,816,816,814,816,816,816,815,813,815,816,815,813,813,815,815,811,811,811,812,808,810,809,807,812,808,805,806,803,804,801,799,795,789,770,662,656,32001,32001,878,32001,32001,32001,32001,32001,32001,32001,32001,32001,32001,32001,32001,32001,32001,32001,32001,32001,32001,32001,32001,32001,32001,32001,32001,32001,32001
32001,781,785,783,784,783,780,785,786,791,794,791,789,790,792,793,789,790,779,32001,32001,32001,32001,32001,32001,32001,32001,32001,32001,32001,32001,32001,32001,32001,32001,32001,32001,32001,32001,32001,32001,32001,32001,32001,739,32001,32001,32001,32001,32001,32001,32001,32001,32001,32001,32001,32001,32001,32001,32001,32001,32001,32001,32001,32001,32001,32001,32001,32001,32001,32001,32001,32001,32001,32001,32001,32001,32001,32001,32001,32001,32001,32001,802,799,794,794,790,793,790,790,794,791,791,790,791,788,789,792,793,791,796,793,790,793,793,792,788,795,791,795,793,790,787,785,778,794,805,814,806,843,865,818,794,780,794,808,32001,32001,32001,32001,32001,32001,32001,32001,833,817,32001,815,794,793,792,794,794,791,792,792,788,789,789,794,793,795,793,794,794,803,803,32001,673,660,653,664,729,769,784,794,796,799,802,801,805,801,802,805,807,804,811,810,809,811,806,807,808,809,810,810,812,812,810,813,813,811,813,815,813,812,813,813,814,814,812,816,810,813,812,814,809,812,812,817,813,812,815,814,817,813,813,817,812,814,816,814,814,811,809,810,808,813,813,813,814,814,814,815,815,817,818,818,813,815,813,813,816,813,816,815,815,818,817,815,818,816,814,815,815,814,812,814,814,814,812,814,816,819,817,813,813,813,815,813,814,809,812,809,807,808,806,810,807,805,807,804,802,801,800,794,790,771,680,641,32001,32001,32001,32001,32001,32001,32001,32001,32001,32001,32001,32001,32001,32001,32001,32001,32001,32001,32001,32001,32001,32001,32001,32001,32001,32001,32001,32001,32001
32001,782,790,777,780,777,781,785,788,793,787,785,793,792,790,787,788,785,789,32001,32001,32001,32001,32001,32001,32001,32001,32001,32001,32001,32001,32001,32001,32001,32001,32001,32001,32001,32001,32001,32001,32001,32001,32001,747,32001,32001,32001,32001,32001,32001,32001,32001,32001,32001,32001,32001,32001,32001,32001,32001,32001,32001,32001,32001,32001,32001,32001,32001,32001,32001,32001,32001,32001,32001,32001,32001,32001,32001,32001,32001,32001,32001,32001,807,807,810,796,790,790,788,791,788,789,792,791,789,790,791,796,792,796,796,792,792,793,791,789,794,791,793,794,789,782,788,800,819,836,799,796,789,789,789,791,782,781,782,32001,832,796,32001,32001,32001,32001,32001,816,800,797,791,791,792,792,791,791,789,792,791,789,791,790,793,791,791,790,790,793,816,806,683,661,652,647,657,693,758,778,791,797,800,804,803,805,803,800,805,804,804,810,810,809,810,806,808,806,808,811,809,811,809,810,812,814,812,813,813,812,809,811,813,812,812,810,813,811,811,814,814,810,810,813,817,810,809,812,812,815,812,810,814,811,812,815,812,809,810,808,816,818,822,824,820,814,812,811,812,814,815,815,819,811,814,815,815,813,810,815,815,814,816,815,816,817,814,814,812,816,812,813,814,813,813,814,819,820,820,817,813,810,812,813,811,813,808,810,809,809,809,808,809,808,804,804,804,805,801,802,799,790,777,32001,32001,32001,32001,32001,32001,32001,32001,32001,32001,32001,32001,32001,32001,32001,32001,32001,32001,32001,32001,32001,32001,32001,32001,32001,32001,32001,32001,32001,32001,32001
32001,32001,32001,778,782,779,788,796,793,790,789,785,791,785,789,787,780,781,773,32001,32001,32001,32001,32001,32001,32001,32001,32001,32001,32001,32001,32001,32001,32001,32001,32001,32001,32001,32001,32001,32001,32001,32001,752,755,32001,32001,32001,32001,32001,32001,32001,32001,32001,32001,32001,32001,32001,32001,32001,32001,32001,32001,32001,32001,32001,32001,32001,32001,32001,32001,32001,32001,32001,32001,32001,32001,32001,32001,32001,32001,32001,32001,32001,32001,815,807,804,794,789,787,790,788,790,791,790,790,789,789,794,788,792,792,789,789,789,790,790,794,787,793,792,788,787,803,804,815,795,787,787,786,789,784,788,781,783,782,797,805,788,778,808,32001,804,805,812,800,796,792,786,789,789,791,793,792,793,791,789,790,789,791,790,791,791,790,798,817,719,669,655,647,644,652,691,752,777,789,795,800,804,805,806,804,797,802,804,805,811,808,807,808,805,808,806,809,809,809,807,808,811,812,811,810,811,811,811,807,810,811,811,814,810,813,810,813,812,811,812,812,813,814,813,811,812,809,815,811,814,814,812,812,817,814,821,830,831,842,842,836,836,824,822,814,812,813,812,812,811,818,814,815,817,816,813,812,817,816,813,816,812,813,817,810,813,813,815,811,811,816,819,822,822,822,821,826,822,815,813,815,812,811,811,809,812,810,808,806,806,808,807,803,806,804,802,802,798,795,789,780,753,642,689,32001,32001,32001,32001,32001,32001,32001,32001,32001,32001,32001,32001,32001,32001,32001,32001,32001,32001,32001,32001,32001,32001,32001,32001,32001,32001,32001,32001
32001,781,782,780,784,790,791,789,788,782,788,788,798,790,793,791,787,786,32001,32001,32001,32001,32001,32001,32001,32001,32001,32001,32001,32001,32001,32001,32001,32001,32001,32001,32001,32001,32001,32001,32001,32001,32001,738,734,32001,32001,751,741,702,32001,32001,32001,32001,32001,32001,32001,32001,32001,32001,32001,32001,32001,32001,32001,32001,32001,32001,32001,32001,32001,32001,32001,32001,32001,32001,32001,32001,32001,32001,32001,32001,32001,32001,32001,32001,830,794,804,797,786,787,786,786,789,788,791,790,791,795,790,796,793,787,787,790,788,788,789,787,790,789,788,793,797,786,783,783,787,787,783,784,783,785,783,785,785,788,787,787,795,801,796,800,786,786,785,791,791,786,790,789,790,792,791,793,793,788,789,791,789,789,791,788,786,791,806,701,666,652,644,644,650,683,755,778,790,795,799,803,801,804,799,799,801,806,804,808,803,805,808,805,806,802,810,806,808,807,808,811,810,808,811,812,809,809,807,810,809,808,815,810,812,812,811,812,812,815,815,812,816,813,811,812,811,817,813,814,816,811,810,820,834,836,865,836,868,879,851,32001,817,824,824,813,812,810,811,807,816,813,813,814,811,810,812,816,815,813,816,814,813,816,812,814,815,819,820,825,835,828,827,825,821,833,840,832,822,822,820,817,819,813,808,810,809,808,806,802,808,805,803,806,806,803,803,800,793,790,780,748,644,642,32001,32001,32001,32001,32001,32001,32001,32001,32001,32001,32001,32001,32001,32001,32001,32001,32001,32001,32001,32001,32001,32001,32001,32001,32001,32001,32001,32001
32001,778,781,781,788,791,791,790,784,785,794,794,805,798,789,786,787,788,32001,32001,32001,32001,32001,32001,32001,32001,32001,32001,32001,32001,32001,32001,32001,32001,32001,32001,32001,32001,32001,32001,32001,32001,32001,739,730,32001,32001,731,746,721,32001,32001,32001,32001,32001,32001,32001,32001,32001,32001,32001,32001,32001,32001,32001,32001,32001,32001,32001,32001,32001,32001,32001,32001,32001,32001,32001,32001,32001,32001,32001,32001,32001,32001,32001,32001,32001,842,802,797,793,789,788,789,791,788,790,788,789,789,788,796,793,788,786,790,785,786,788,787,791,787,799,795,786,783,782,781,788,785,783,784,783,786,783,785,783,787,788,784,785,787,789,786,784,789,783,790,791,789,787,788,791,793,789,791,790,787,788,789,788,789,791,785,782,777,798,693,654,645,644,646,653,685,755,777,788,794,796,801,801,803,799,799,803,806,807,808,805,806,808,807,808,803,808,806,808,806,808,809,810,812,811,811,812,809,808,811,810,809,812,807,811,810,811,811,811,813,812,812,815,814,812,815,814,816,813,814,814,806,825,840,835,817,828,857,32001,32001,32001,32001,32001,845,850,830,823,814,809,805,810,809,811,812,809,807,811,816,814,813,815,814,809,816,812,818,827,831,825,820,817,815,812,811,813,818,816,820,816,820,818,822,826,824,810,809,809,808,806,802,808,805,801,804,808,803,804,801,796,790,781,758,651,641,32001,32001,32001,32001,32001,32001,32001,32001,32001,32001,32001,32001,32001,32001,32001,32001,32001,32001,32001,32001,32001,32001,32001,32001,32001,32001,32001,32001
32001,780,785,784,786,789,787,787,786,782,792,800,796,798,798,788,785,783,32001,32001,32001,32001,32001,32001,32001,32001,32001,32001,32001,32001,32001,32001,32001,32001,32001,32001,32001,32001,32001,32001,32001,32001,32001,732,756,32001,32001,32001,32001,32001,32001,32001,32001,32001,32001,32001,32001,32001,32001,32001,32001,32001,32001,32001,32001,32001,32001,32001,32001,32001,32001,32001,32001,32001,32001,32001,32001,32001,32001,32001,32001,32001,32001,32001,32001,32001,32001,32001,32001,804,809,803,794,788,787,787,788,789,795,791,787,790,788,786,788,787,784,787,788,789,793,802,801,787,785,782,781,783,786,785,783,784,782,787,786,786,787,786,780,782,785,786,790,787,784,786,782,791,788,786,787,786,789,791,790,790,790,786,787,790,786,788,790,789,769,771,788,32001,652,636,641,644,661,688,758,777,787,793,796,803,805,805,800,802,803,805,803,807,806,804,804,805,808,805,809,807,812,807,808,810,811,813,812,809,811,809,807,813,814,809,810,808,809,810,807,813,808,811,808,808,811,811,811,812,811,811,812,810,812,819,830,816,808,815,829,865,32001,32001,32001,32001,32001,32001,802,812,810,820,821,814,812,812,814,809,808,807,811,815,812,811,815,813,811,823,825,837,828,827,813,810,813,810,810,810,811,813,812,813,808,813,814,815,822,826,818,811,810,808,806,801,809,806,803,804,805,799,803,800,795,791,781,765,668,637,32001,32001,32001,32001,32001,32001,32001,32001,32001,32001,32001,32001,32001,32001,32001,32001,32001,32001,32001,32001,32001,32001,32001,32001,32001,32001,32001,32001
32001,783,785,781,781,787,788,789,788,784,783,787,793,789,790,781,785,785,32001,32001,32001,32001,32001,32001,32001,32001,32001,32001,32001,32001,32001,32001,32001,32001,32001,32001,32001,32001,32001,32001,32001,32001,728,724,32001,32001,32001,32001,32001,32001,32001,32001,32001,32001,32001,32001,32001,32001,32001,32001,32001,32001,32001,32001,32001,32001,32001,32001,32001,32001,32001,32001,32001,32001,32001,32001,32001,32001,719,730,32001,32001,32001,32001,32001,32001,32001,32001,32001,32001,838,811,800,799,793,787,788,788,791,790,787,790,790,787,789,787,785,786,787,787,794,804,792,784,782,779,782,782,786,787,782,783,781,786,786,788,785,786,784,784,790,787,791,788,786,789,784,788,788,788,787,786,789,789,787,788,788,784,787,789,790,790,801,782,769,32001,658,636,627,633,649,655,671,715,764,778,787,790,795,799,800,800,795,796,798,802,800,804,805,806,806,807,805,805,809,807,809,806,807,810,807,811,808,808,811,807,806,816,818,810,807,804,805,810,808,811,810,812,811,812,813,810,810,811,808,806,807,815,823,828,812,805,804,815,813,862,32001,32001,32001,32001,32001,32001,32001,32001,32001,32001,801,816,838,835,822,824,824,813,812,813,809,810,812,814,820,833,827,825,818,815,810,810,812,808,809,809,808,811,808,810,806,812,811,813,818,823,817,810,806,806,805,802,807,806,803,802,804,800,799,799,792,786,783,770,32001,32001,32001,32001,32001,32001,32001,32001,32001,32001,32001,32001,32001,32001,32001,32001,32001,32001,32001,32001,32001,32001,32001,32001,32001,32001,32001,32001,32001,32001
32001,786,782,776,777,784,785,782,780,780,780,783,789,784,787,778,777,777,32001,32001,32001,32001,32001,32001,32001,32001,32001,32001,32001,32001,32001,32001,32001,32001,32001,32001,32001,32001,32001,32001,32001,32001,732,729,32001,32001,32001,32001,32001,32001,32001,32001,32001,32001,32001,32001,32001,32001,32001,32001,32001,32001,32001,32001,32001,32001,32001,32001,32001,32001,32001,32001,32001,32001,32001,32001,32001,768,751,767,32001,32001,32001,32001,32001,32001,32001,32001,32001,32001,32001,809,801,812,808,800,786,784,786,786,783,785,786,787,791,790,785,785,785,792,814,798,790,788,783,779,781,781,788,785,783,783,780,787,785,786,784,786,783,783,790,785,790,787,786,787,785,790,788,789,788,787,788,785,783,782,783,784,783,785,786,786,806,763,683,652,638,620,620,647,673,664,687,737,764,771,778,785,792,797,796,794,791,793,797,799,801,803,804,804,804,805,807,804,807,806,807,805,807,809,806,811,808,809,810,807,807,816,815,812,809,803,806,809,808,809,810,809,810,811,809,806,806,810,812,806,807,830,825,812,805,805,803,817,823,32001,32001,32001,32001,32001,32001,32001,32001,32001,32001,32001,32001,32001,32001,824,828,844,838,828,821,821,817,815,817,824,817,831,815,812,810,811,810,811,811,810,812,809,809,812,808,807,806,812,812,810,813,821,816,809,804,806,806,804,805,804,801,802,805,799,802,800,797,789,784,771,725,637,663,32001,32001,32001,32001,32001,32001,32001,32001,32001,32001,32001,32001,32001,32001,32001,32001,32001,32001,32001,32001,32001,32001,32001,32001,32001,32001,32001
32001,784,786,784,785,789,786,782,790,782,788,783,794,786,787,787,782,780,32001,32001,32001,32001,32001,32001,32001,32001,32001,32001,32001,32001,32001,32001,32001,32001,32001,32001,32001,32001,32001,32001,32001,32001,727,708,32001,32001,32001,32001,32001,32001,32001,32001,32001,32001,32001,32001,32001,32001,32001,32001,32001,32001,32001,32001,32001,32001,32001,32001,32001,32001,32001,32001,32001,32001,32001,32001,32001,775,787,32001,32001,32001,32001,32001,32001,32001,32001,32001,32001,32001,32001,32001,32001,801,795,798,795,793,790,787,783,786,785,784,787,787,785,785,785,804,806,789,786,784,782,777,780,779,785,782,780,779,780,786,784,785,782,785,781,782,787,785,789,788,788,789,788,790,788,788,785,781,781,776,773,772,774,777,778,780,780,781,794,796,687,656,638,626,632,651,683,671,649,665,724,757,776,783,790,795,795,795,794,793,798,801,801,803,801,801,802,804,806,805,807,807,808,806,807,808,805,809,804,806,809,804,806,810,809,816,812,802,806,807,805,810,811,809,806,808,808,805,808,808,811,808,822,838,807,806,803,808,802,818,843,32001,32001,32001,32001,32001,32001,32001,32001,32001,32001,32001,32001,32001,32001,32001,32001,803,846,841,817,818,804,815,816,826,32001,806,810,808,807,808,807,809,809,808,810,807,808,809,807,807,807,811,810,811,811,817,819,813,805,804,805,803,804,803,800,800,805,799,802,799,797,789,782,769,750,647,642,32001,32001,32001,32001,32001,32001,32001,32001,32001,32001,32001,32001,32001,32001,32001,32001,32001,32001,32001,32001,32001,32001,32001,32001,32001,32001,32001
32001,778,778,783,786,790,790,781,783,775,782,778,781,792,790,784,790,785,32001,32001,32001,32001,32001,32001,32001,32001,32001,32001,32001,32001,32001,32001,32001,32001,32001,32001,32001,32001,32001,32001,32001,728,729,32001,32001,32001,32001,32001,32001,32001,32001,32001,32001,32001,32001,32001,32001,32001,32001,32001,32001,32001,32001,32001,32001,32001,32001,32001,32001,32001,32001,32001,32001,32001,32001,32001,32001,32001,759,32001,32001,32001,32001,32001,32001,32001,32001,32001,32001,32001,32001,32001,32001,32001,789,792,799,795,792,788,782,784,782,780,781,782,778,781,788,801,792,783,784,783,783,779,779,778,786,783,783,781,781,787,785,783,778,784,781,780,786,783,784,784,789,788,789,786,784,785,778,777,774,759,742,734,734,756,771,770,770,774,774,778,750,675,655,639,644,667,669,643,631,633,640,688,755,776,786,791,794,795,795,794,796,800,801,804,805,805,803,801,805,804,803,806,807,808,805,808,805,809,805,805,807,805,806,810,814,820,817,810,806,809,805,807,807,806,805,804,805,800,802,813,820,829,821,806,799,801,804,805,810,827,808,32001,32001,32001,32001,32001,32001,32001,32001,32001,32001,32001,32001,32001,32001,32001,32001,32001,32001,32001,32001,32001,32001,860,32001,32001,32001,813,807,812,811,805,805,806,806,808,809,808,806,807,808,810,807,811,809,808,808,813,827,815,808,806,803,805,802,802,799,801,800,798,802,801,800,792,787,772,761,655,637,32001,32001,32001,32001,32001,32001,32001,32001,32001,32001,32001,32001,32001,32001,32001,32001,32001,32001,32001,32001,32001,32001,32001,32001,32001,32001,32001
32001,780,781,783,783,789,783,776,778,775,779,781,793,794,793,780,782,781,32001,32001,32001,32001,32001,32001,32001,32001,32001,32001,32001,32001,32001,32001,32001,32001,32001,32001,32001,32001,32001,32001,32001,729,755,32001,32001,32001,32001,32001,32001,32001,32001,32001,32001,32001,32001,32001,32001,32001,32001,32001,32001,32001,32001,32001,32001,32001,32001,32001,32001,32001,32001,32001,32001,32001,32001,32001,32001,32001,32001,32001,32001,32001,32001,32001,32001,32001,32001,32001,32001,32001,32001,32001,32001,32001,32001,32001,806,818,802,794,783,782,783,784,785,785,784,786,802,805,802,796,787,783,779,779,776,778,784,783,783,781,783,787,783,780,779,785,781,782,783,784,787,785,787,782,784,783,782,784,773,756,733,662,646,643,642,663,687,746,752,763,766,768,762,740,691,658,658,677,673,647,634,637,639,666,749,773,784,790,792,794,796,792,796,800,798,802,804,802,801,800,802,805,805,806,806,805,806,807,807,809,804,806,805,803,807,813,816,818,816,810,809,807,806,807,805,805,803,804,808,801,813,835,841,822,806,801,796,801,806,805,819,825,32001,32001,32001,32001,32001,32001,32001,32001,32001,32001,32001,32001,32001,32001,32001,32001,32001,32001,32001,32001,32001,32001,32001,32001,32001,32001,32001,32001,813,814,825,823,820,820,809,808,809,809,805,805,807,806,804,809,807,806,807,811,825,821,808,805,805,807,803,801,799,799,800,797,800,798,801,793,783,774,763,661,629,32001,32001,32001,32001,32001,32001,32001,32001,32001,32001,32001,32001,32001,32001,32001,32001,32001,32001,32001,32001,32001,32001,32001,32001,32001,32001,32001
32001,787,786,783,781,777,777,774,782,778,775,780,784,782,780,778,781,779,776,32001,32001,32001,32001,32001,32001,32001,32001,32001,32001,32001,32001,32001,32001,32001,32001,32001,32001,32001,32001,32001,32001,721,722,32001,32001,32001,32001,32001,32001,32001,32001,32001,32001,32001,32001,32001,32001,32001,32001,32001,32001,32001,32001,32001,32001,32001,32001,32001,32001,32001,32001,32001,32001,32001,32001,32001,32001,32001,32001,32001,32001,32001,32001,32001,32001,32001,32001,32001,32001,32001,32001,32001,32001,32001,32001,32001,32001,32001,789,796,788,789,789,793,797,803,790,790,820,814,802,799,800,793,791,780,779,779,783,780,782,781,783,784,781,778,779,782,783,780,783,781,782,785,786,780,785,782,783,793,771,32001,654,633,630,628,626,640,639,666,715,755,761,763,753,730,693,662,662,661,672,656,649,655,657,672,758,780,786,789,791,794,796,793,796,798,800,800,799,800,806,805,794,798,804,808,807,802,804,809,811,809,807,807,808,808,811,815,814,817,812,806,807,808,807,803,801,805,803,803,808,811,829,828,809,805,804,802,799,803,804,802,830,814,32001,32001,32001,32001,32001,32001,32001,32001,32001,32001,32001,32001,32001,32001,32001,32001,32001,32001,32001,32001,32001,32001,32001,32001,32001,32001,32001,32001,32001,32001,32001,829,817,814,814,824,824,824,812,806,808,808,806,809,803,804,805,811,836,818,805,804,805,807,804,801,800,800,801,793,798,798,801,796,795,777,763,32001,32001,32001,32001,32001,32001,32001,32001,32001,32001,32001,32001,32001,32001,32001,32001,32001,32001,32001,32001,32001,32001,32001,32001,32001,32001,32001,32001,32001
32001,784,781,782,777,779,780,777,786,784,784,783,792,784,778,775,778,780,772,32001,32001,32001,32001,32001,32001,32001,32001,32001,32001,32001,32001,32001,32001,32001,32001,32001,32001,32001,32001,32001,32001,734,32001,32001,32001,32001,32001,32001,32001,32001,32001,32001,32001,32001,32001,32001,32001,32001,32001,32001,32001,32001,32001,32001,32001,32001,32001,32001,32001,32001,32001,32001,32001,32001,32001,32001,32001,32001,32001,32001,32001,32001,32001,32001,32001,32001,32001,32001,32001,32001,32001,32001,32001,32001,32001,32001,32001,32001,32001,816,790,774,777,780,782,800,790,774,32001,790,815,810,795,791,790,778,776,778,780,778,779,780,784,783,781,780,780,786,783,781,783,783,782,782,781,776,780,781,785,784,697,652,635,628,626,626,624,635,628,637,666,710,724,734,735,669,630,620,625,632,648,666,676,678,703,751,781,788,789,793,792,794,796,792,797,797,801,801,799,800,820,799,786,794,799,804,804,803,802,806,810,808,808,808,806,802,806,810,811,811,807,802,805,807,803,803,797,797,798,801,818,831,814,803,799,804,804,804,799,799,804,801,813,825,32001,32001,32001,32001,32001,32001,32001,32001,32001,32001,32001,32001,32001,32001,32001,32001,32001,32001,32001,32001,32001,32001,32001,32001,32001,32001,32001,32001,32001,32001,32001,32001,32001,32001,32001,839,819,824,806,804,812,807,804,805,803,804,807,809,827,820,809,806,805,805,801,800,798,798,801,795,798,801,796,796,788,782,754,734,634,657,32001,32001,32001,32001,32001,32001,32001,32001,32001,32001,32001,32001,32001,32001,32001,32001,32001,32001,32001,32001,32001,32001,32001,32001,32001,32001
32001,779,783,780,778,782,792,790,782,775,776,781,779,781,779,776,775,776,778,32001,32001,32001,32001,32001,32001,32001,32001,32001,32001,32001,32001,32001,32001,32001,32001,32001,32001,32001,32001,32001,32001,32001,32001,32001,32001,32001,32001,32001,32001,32001,32001,32001,32001,32001,32001,32001,32001,32001,32001,32001,32001,32001,32001,32001,32001,32001,32001,32001,32001,32001,32001,32001,32001,32001,32001,32001,32001,32001,32001,32001,32001,32001,32001,32001,32001,32001,32001,32001,32001,32001,32001,32001,32001,32001,32001,32001,32001,32001,32001,32001,32001,809,784,788,802,762,32001,32001,32001,32001,32001,32001,795,791,803,792,783,780,779,778,779,777,782,781,781,778,777,783,783,781,782,783,783,783,780,777,781,782,796,32001,671,646,633,629,627,624,626,630,625,633,662,697,721,715,660,631,615,612,616,623,629,655,689,731,760,780,786,790,789,792,792,797,796,796,796,798,798,802,797,806,810,784,761,774,785,796,800,800,802,806,807,805,804,803,801,803,806,806,807,807,803,798,803,805,802,794,791,792,790,810,816,802,800,794,789,795,804,798,800,800,802,804,817,820,32001,32001,32001,32001,32001,32001,32001,32001,32001,32001,32001,32001,32001,32001,32001,32001,32001,32001,32001,32001,32001,32001,32001,32001,32001,32001,32001,32001,32001,32001,32001,32001,32001,32001,32001,32001,32001,32001,32001,806,816,817,815,805,802,804,807,810,826,821,806,803,802,802,799,798,798,799,801,796,799,797,795,790,788,784,757,723,629,613,32001,32001,32001,32001,32001,32001,32001,32001,32001,32001,32001,32001,32001,32001,32001,32001,32001,32001,32001,32001,32001,32001,32001,32001,32001,32001
32001,778,782,782,788,787,784,778,779,778,778,785,790,781,782,783,778,780,773,779,32001,32001,32001,32001,32001,32001,32001,32001,32001,32001,32001,32001,32001,32001,32001,32001,32001,32001,32001,32001,32001,32001,32001,32001,32001,32001,32001,32001,32001,32001,32001,32001,32001,32001,32001,32001,32001,32001,32001,32001,32001,32001,32001,32001,32001,32001,32001,32001,32001,32001,32001,32001,32001,32001,32001,32001,32001,32001,32001,32001,32001,32001,32001,32001,794,785,32001,32001,32001,32001,32001,32001,32001,32001,32001,32001,32001,32001,32001,32001,32001,32001,32001,32001,32001,32001,32001,32001,32001,32001,32001,32001,32001,32001,796,793,785,779,778,777,778,777,779,779,781,778,779,784,783,781,781,785,782,780,780,776,782,792,793,715,672,648,635,629,629,623,621,626,623,634,665,718,727,703,643,620,610,604,610,613,621,642,682,729,757,774,783,789,790,794,793,798,797,798,795,796,796,800,795,816,795,770,751,758,777,790,796,798,801,803,804,800,804,798,798,796,798,798,815,820,809,812,817,806,777,765,762,769,781,818,799,789,786,775,776,788,798,797,799,797,800,809,810,32001,32001,32001,32001,32001,32001,32001,32001,32001,32001,32001,32001,32001,32001,32001,32001,32001,32001,32001,32001,32001,32001,32001,32001,32001,32001,32001,32001,32001,32001,32001,32001,32001,32001,32001,32001,32001,32001,32001,32001,32001,32001,32001,843,832,827,816,812,819,830,814,801,801,801,802,801,797,798,801,800,796,799,795,795,789,786,783,768,747,645,628,32001,32001,32001,32001,32001,32001,32001,32001,32001,32001,32001,32001,32001,32001,32001,32001,32001,32001,32001,32001,32001,32001,32001,32001,32001,32001
32001,774,779,778,776,774,774,778,781,779,778,786,785,772,772,780,776,781,779,784,794,32001,32001,32001,32001,32001,32001,32001,32001,32001,32001,32001,32001,32001,32001,32001,32001,32001,32001,32001,32001,32001,32001,32001,32001,32001,32001,32001,32001,32001,32001,32001,32001,32001,32001,32001,32001,32001,32001,32001,32001,32001,32001,32001,32001,32001,32001,32001,32001,32001,32001,32001,32001,32001,32001,32001,32001,32001,32001,32001,32001,32001,32001,32001,774,741,32001,751,751,32001,32001,32001,32001,32001,32001,32001,32001,32001,32001,32001,32001,32001,32001,32001,32001,32001,32001,32001,32001,32001,32001,32001,32001,32001,802,794,782,778,779,779,778,777,781,778,782,779,778,781,780,780,780,784,780,779,780,777,782,799,773,725,681,655,645,639,636,631,629,635,634,655,683,730,705,702,642,619,611,601,605,611,621,640,683,701,743,767,779,787,789,792,789,795,793,797,796,798,798,801,797,821,789,769,750,743,762,785,792,797,800,803,801,799,802,799,802,796,800,813,839,838,820,807,784,788,745,725,712,727,750,759,775,782,778,754,754,773,789,798,802,798,798,817,829,32001,32001,32001,32001,32001,32001,32001,32001,32001,32001,32001,32001,32001,32001,32001,32001,32001,32001,32001,32001,32001,32001,32001,32001,32001,32001,32001,32001,32001,32001,32001,32001,32001,32001,32001,32001,32001,32001,32001,32001,32001,32001,32001,32001,32001,32001,32001,32001,817,812,816,809,808,803,801,800,799,798,797,797,797,795,797,794,794,789,783,773,756,657,611,32001,32001,32001,32001,32001,32001,32001,32001,32001,32001,32001,32001,32001,32001,32001,32001,32001,32001,32001,32001,32001,32001,32001,32001,32001,32001
32001,776,778,778,777,775,773,771,776,777,783,783,786,778,775,779,776,778,775,779,775,32001,32001,32001,32001,32001,32001,32001,32001,32001,32001,32001,32001,32001,32001,32001,32001,32001,32001,32001,32001,32001,32001,32001,32001,32001,32001,32001,32001,32001,32001,32001,32001,32001,32001,32001,32001,32001,32001,32001,32001,32001,32001,32001,32001,32001,32001,32001,32001,32001,32001,32001,32001,32001,32001,32001,32001,32001,32001,32001,32001,32001,32001,32001,32001,739,734,739,744,736,739,770,32001,32001,32001,32001,32001,32001,32001,32001,32001,32001,32001,32001,32001,32001,32001,32001,32001,32001,32001,32001,32001,32001,812,796,785,781,780,780,779,778,782,779,781,779,779,780,782,782,779,783,781,781,782,779,780,790,781,768,699,658,659,649,650,645,644,655,651,663,706,717,705,730,656,624,613,604,606,608,620,643,684,695,732,765,780,788,792,791,792,796,794,800,795,799,798,799,795,826,803,773,752,740,750,780,787,791,797,799,799,798,800,799,800,799,817,826,824,804,777,774,781,755,722,711,705,717,733,741,768,767,738,735,741,760,776,789,800,798,798,815,839,32001,32001,32001,32001,32001,32001,32001,32001,32001,32001,32001,32001,32001,32001,32001,32001,32001,32001,32001,32001,32001,32001,32001,32001,32001,32001,32001,32001,32001,32001,32001,32001,32001,32001,32001,32001,32001,32001,32001,32001,32001,32001,32001,32001,32001,32001,32001,32001,32001,32001,842,828,834,814,800,801,800,799,797,798,797,795,794,793,793,790,787,775,754,32001,32001,32001,32001,32001,32001,32001,32001,32001,32001,32001,32001,32001,32001,32001,32001,32001,32001,32001,32001,32001,32001,32001,32001,32001,32001,32001,32001
